ply
format ascii 1.0
comment Created by Open3D
element vertex 1027
property float x
property float y
property float z
property float nx
property float ny
property float nz
end_header
82466 34224 14743 0.751784 -0.647458 0.124975
82478 34231 14743 0.855835 -0.513839 0.0592971
82501 34225 14740 -0.117999 0.942918 -0.311418
82510 34235 14740 0.363512 -0.83261 0.417875
82501 34262 14743 0.829674 -0.521491 0.19922
82499 34282 14745 0.920693 -0.353594 0.165214
82500 34290 14746 0.968763 -0.185074 0.165062
82514 34295 14745 0.946231 -0.283266 0.156227
82514 34312 14746 0.84463 -0.513287 -0.152106
82537 34307 14744 0.0532333 0.246302 0.96773
82522 34340 14748 0.865057 -0.491381 0.101101
82542 34338 14746 -0.487142 0.78063 0.391549
82561 34338 14744 -0.451598 0.888602 0.0802808
82553 34355 14747 0.276179 -0.514812 -0.811599
82527 34397 14752 0.979294 -0.189941 0.0700372
82547 34396 14750 0.986214 0.165459 0.00225847
82550 34410 14751 0.991845 -0.0878964 0.0922922
82553 34425 14752 0.987841 -0.0873272 0.128626
82557 34438 14753 0.964077 -0.264927 -0.0192162
82541 34462 14756 0.951707 -0.304944 0.0355335
82559 34462 14754 0.929117 -0.369555 -0.0130881
82568 34471 14754 0.87705 -0.474577 0.0745669
82570 34486 14755 0.909098 -0.415487 -0.030198
82571 34502 14757 0.923979 -0.381705 0.0237548
82590 34502 14755 0.773516 -0.628531 -0.081371
82598 34511 14755 0.750179 -0.659208 0.0517312
82592 34525 14757 0.711102 -0.659801 -0.242893
82588 34545 14758 0.705296 0.12904 -0.697069
82585 34565 14760 0.743909 0.109263 -0.659288
82593 34574 14760 0.741383 0.438844 -0.507707
82587 34595 14762 0.85592 -0.235127 -0.460561
82595 34605 14762 0.654216 -0.584122 -0.48042
82603 34614 14762 -0.447075 0.699693 0.557274
82612 34615 14762 -0.0294738 0.960467 0.276829
82608 34635 14764 -0.271177 0.773557 0.572776
82629 34633 14761 0.523831 0.798965 -0.295391
83295 34091 14661 0.290039 0.952387 -0.0940021
83321 34089 14658 -0.228384 -0.971074 0.0696897
83339 34094 14657 -0.175558 -0.984244 0.0210532
83348 34106 14657 -0.0322308 -0.997998 0.0544249
83371 34097 14655 -0.067082 -0.997455 -0.024147
83399 34094 14652 0.0934756 -0.988892 0.115563
83428 34090 14649 -0.0854166 -0.996074 0.0232369
83436 34104 14649 -0.0854166 -0.996074 0.0232369
83515 34060 14639 0.562153 -0.784679 0.261273
83526 34071 14638 0.71024 -0.703834 -0.013324
83516 34090 14641 0.71024 -0.703834 -0.013324
83502 34120 14644 0.688567 -0.289035 0.665082
83527 34120 14642 0.924795 -0.000593246 0.380465
83500 34161 14647 -0.20436 0.961809 0.182098
83521 34165 14646 0.645381 -0.75335 -0.126285
83543 34167 14644 0.723691 -0.634323 0.271855
83565 34170 14642 0.560255 -0.70396 0.436526
83566 34179 14642 -0.437125 0.896836 -0.0678755
83599 34173 14639 -0.515515 0.805935 -0.291055
91646 39112 13724 0.34122 -0.939944 0.00857985
91652 39152 13723 0.34122 -0.939944 0.00857985
88658 39271 14080 -0.255601 0.966605 0.018525
88543 39273 14094 -0.22548 0.974236 -0.00486864
88639 39326 14081 -0.264477 0.964356 0.00837401
85675 39474 14424 -0.0481167 0.996021 -0.0750174
85638 39482 14428 -0.127863 0.988413 -0.0817978
85555 39471 14438 0.287525 -0.956282 0.0534198
85630 39523 14427 0.199287 -0.970207 -0.137777
63044 42788 13075 0.949332 0.310137 -0.050834
63097 42741 13083 0.949332 0.310137 -0.050834
65237 40745 13405 0.67739 0.734339 0.0434696
82229 26951 13929 -0.23518 0.0115338 -0.971883
82259 26967 13930 -0.0582385 0.0107131 -0.998245
82283 26940 13926 -0.0582385 0.0107131 -0.998245
82316 26945 13926 -0.0582385 0.0107131 -0.998245
82351 26942 13924 -0.0582385 0.0107131 -0.998245
81105 33404 14726 0.997345 0.0050412 0.0726461
81108 33430 14729 0.997867 0.00230044 0.0652402
81114 33448 14731 0.975951 -0.133123 0.172623
81105 33487 14736 0.447895 -0.852964 -0.268034
81125 33472 14733 -0.399457 -0.129516 0.907557
81132 33487 14735 -0.0483379 -0.913186 -0.404665
81151 33474 14732 0.307803 0.909348 0.2799
81159 33488 14733 0.211153 0.790797 0.574503
81184 33462 14729 0.30681 -0.752122 0.583249
81194 33471 14730 0.581766 -0.645335 0.495066
81191 33491 14732 -0.298446 -0.0365066 -0.953728
81192 33520 14735 0.690986 -0.709059 0.140621
81218 33494 14731 0.420753 -0.279055 -0.863189
81223 33512 14733 0.24783 0.328567 -0.911386
81236 33513 14732 -0.140182 0.813996 -0.563701
81241 33533 14734 -0.165509 0.708631 0.685893
81248 33534 14734 -0.315116 0.884697 0.343531
81261 33535 14734 -0.173468 0.77499 -0.6077
81270 33546 14734 0.0754383 -0.79584 -0.600789
81282 33549 14734 0.00686906 0.817285 0.576193
81299 33542 14732 -0.135891 0.923132 0.359669
81316 33535 14731 0.0331457 0.990979 0.129855
81321 33555 14733 0.0376621 -0.860927 -0.507333
81331 33548 14731 0.0355578 -0.854103 -0.518888
81347 33543 14730 0.025993 0.786334 0.617255
81362 33542 14729 -0.0458849 0.753049 0.656362
81383 33528 14726 -0.169161 -0.985369 0.0207888
81379 33565 14731 -0.122758 -0.746328 -0.65416
81414 33523 14724 -0.193144 -0.979498 -0.0572673
81416 33548 14727 0.357257 0.667787 0.653014
81439 33517 14722 -0.276134 -0.960164 0.0428385
81447 33528 14723 -0.399469 -0.916745 -0.00187184
81460 33532 14723 0.162923 0.981521 -0.100364
81478 33524 14721 0.408018 0.898397 -0.162494
81519 33474 14713 0.596167 0.800504 -0.0614641
81561 33424 14705 -0.550318 -0.819711 0.158821
81571 33434 14706 -0.548957 -0.817662 0.173422
81573 33444 14707 -0.532554 -0.811321 0.241134
81601 33419 14702 -0.633762 -0.737228 0.234183
82462 33481 14651 0.948072 0.309346 -0.0739265
82441 33520 14656 0.970867 0.228442 -0.0723313
82443 33541 14658 0.968311 0.24941 -0.0129589
82466 33535 14656 0.992345 -0.112044 0.0519288
82460 33565 14659 0.988669 0.148108 0.024426
82464 33584 14661 0.978718 0.205155 -0.00482071
82460 33611 14663 0.983207 0.182431 0.0047922
82440 33658 14670 0.989696 0.0359397 0.138603
82415 33700 14675 0.710542 -0.0361785 -0.702724
82426 33708 14675 0.745442 -0.590477 0.309279
82450 33701 14673 0.846845 -0.517274 -0.123613
82446 33728 14676 -0.567499 0.745221 -0.350128
82463 33729 14674 -0.566381 0.696608 -0.440397
82458 33756 14677 0.819776 -0.308886 -0.482241
82478 33744 14675 0.698754 -0.693445 0.175718
82471 33774 14678 0.20932 -0.823609 -0.527117
82498 33764 14675 -0.397181 0.403213 -0.824419
82514 33767 14674 -0.339103 0.824496 -0.453008
82543 33755 14671 0.515839 -0.719275 0.465354
82542 33778 14673 0.761033 -0.357555 0.54128
82531 33811 14677 0.727644 -0.28716 0.622955
82527 33826 14678 0.819441 -0.24328 0.518971
82553 33817 14675 0.823604 -0.103371 0.557665
82543 33850 14679 0.797487 -0.202851 0.568213
82544 33870 14681 0.895814 -0.444349 0.00839838
82543 33891 14683 -0.399208 0.766412 0.503236
82564 33888 14681 -0.128452 0.556852 -0.820619
82569 33903 14682 -0.485965 0.482302 0.72885
82585 33896 14680 0.117385 -0.554755 -0.823692
82592 33909 14681 -0.00836563 0.801983 0.597288
82626 33894 14676 -0.100744 -0.994817 0.0137997
82629 33910 14678 -0.168251 -0.979773 -0.108331
82646 33913 14676 -0.191052 -0.954605 -0.228534
82748 33826 14660 0.667447 0.741824 -0.0648971
82526 34078 14701 0.671896 0.405322 -0.619895
82472 34144 14712 0.937806 0.346105 -0.0270515
82493 34140 14710 0.964855 -0.0059359 -0.262716
82489 34163 14712 0.655363 -0.710196 0.257141
82500 34171 14712 -0.560671 0.808594 -0.17839
82494 34196 14714 0.0297557 0.472729 -0.880705
82516 34192 14712 -0.214815 0.907275 -0.361533
82522 34195 14712 0.647102 -0.638719 0.41629
82538 34197 14711 0.683157 -0.573164 0.452525
82560 34194 14709 0.943584 -0.0988506 -0.316035
82559 34213 14710 0.876196 -0.469633 -0.108283
82554 34236 14713 0.656742 -0.0540245 -0.752177
82556 34252 14714 0.895702 -0.222665 -0.384886
82567 34260 14714 0.859428 -0.220908 -0.461068
82559 34277 14716 0.882472 -0.0223712 -0.469833
82579 34276 14714 0.717356 -0.649769 -0.251397
82562 34310 14718 -0.362176 -0.25052 0.897813
82578 34312 14717 0.876353 0.131101 0.463485
82607 34303 14714 0.985765 -0.133671 -0.101976
82581 34344 14720 0.726287 0.546972 -0.416327
82586 34358 14720 0.588403 -0.751454 -0.298496
82595 34359 14720 0.772559 -0.610454 -0.174641
82602 34369 14720 0.867383 -0.48973 -0.0883849
82590 34397 14723 -0.116964 0.0895947 0.989087
82619 34388 14720 0.946165 -0.282226 -0.158493
82606 34418 14723 0.932963 -0.074791 -0.352116
82610 34431 14724 0.941006 -0.311475 -0.132251
82622 34438 14724 0.904612 -0.42251 -0.0562255
82617 34451 14725 0.671399 -0.328163 -0.664479
82627 34459 14725 0.767592 -0.42368 -0.480934
82631 34472 14726 0.837097 -0.00312731 -0.547046
82638 34483 14726 0.867841 0.126725 -0.48041
82640 34498 14727 0.892488 0.0705339 -0.445522
82629 34524 14730 0.97212 -0.0940486 -0.214799
82627 34534 14731 0.859145 -0.482607 -0.170175
82628 34550 14732 0.675074 -0.417104 0.608522
82640 34556 14731 0.890646 -0.4433 0.101165
82638 34574 14733 0.547645 -0.833098 -0.0776777
82649 34581 14733 0.74812 -0.663284 0.0192589
82648 34598 14734 -0.613235 -0.787814 0.0573865
82693 34578 14728 -0.04804 0.986296 -0.157833
82704 34576 14727 0.0923663 0.989313 -0.112821
83285 34120 14636 0.375689 0.925607 -0.0459189
83358 34080 14626 -0.17993 -0.977453 -0.110505
83383 34080 14624 -0.149601 -0.984464 -0.0919299
83405 34082 14622 -0.0965792 0.989918 0.103613
83422 34087 14621 -0.0741706 -0.993355 -0.0880086
83471 34069 14615 -0.15492 -0.960237 0.232259
83490 34064 14613 -0.281818 0.959282 0.0188749
83481 34091 14615 -0.210879 -0.976357 0.047515
83549 34097 14609 0.827924 -0.540353 -0.150199
83547 34118 14611 0.724311 -0.521209 -0.451349
83549 34127 14612 0.887273 -0.456118 0.068581
83551 34145 14613 0.249362 -0.103105 -0.962906
83560 34157 14613 -0.526693 0.344431 0.77715
83596 34150 14609 -0.29424 0.915582 -0.274103
83596 34169 14610 -0.17818 -0.979233 -0.0967202
83628 34165 14607 0.0409641 0.942081 -0.332875
83670 34155 14602 -0.233956 0.947214 -0.219205
91621 39094 13665 0.34122 -0.939944 0.00857985
91619 39133 13664 0.34122 -0.939944 0.00857985
88612 39277 14038 -0.379274 0.925276 -0.0038997
88621 39309 14036 -0.320989 0.946405 0.0358268
85611 39436 14400 -0.0110689 0.995451 0.094625
85578 39467 14402 0.338234 -0.933336 -0.120337
85574 39487 14402 0.338234 -0.933336 -0.120337
85591 39515 14399 0.344671 -0.918407 -0.194244
65172 40766 13320 0.681117 0.731931 0.0188554
65136 40727 13317 0.681117 0.731931 0.0188554
82179 26994 13882 -0.228946 0.00648728 -0.973418
82216 26981 13879 -0.23518 0.0115338 -0.971883
82251 26977 13877 -0.0582385 0.0107131 -0.998245
82281 26994 13878 -0.0582385 0.0107131 -0.998245
81090 33404 14706 0.998596 -0.0478679 -0.0227027
81075 33477 14716 0.973977 0.191479 -0.121267
81085 33486 14716 -0.669676 0.70921 -0.22035
81089 33492 14717 0.425117 -0.809773 -0.404405
81098 33504 14718 0.355697 -0.910637 -0.210286
81114 33495 14716 0.140136 -0.980061 0.140859
81124 33506 14717 -0.0788246 0.916973 0.391085
81132 33518 14718 -0.025487 0.858089 0.512868
81150 33508 14716 -0.0838573 0.793202 0.603157
81161 33498 14714 0.0350888 0.501835 0.864251
81174 33497 14713 -0.0680268 0.420168 0.904893
81180 33515 14715 -0.148833 0.378834 0.913419
81191 33522 14715 0.250157 -0.0483546 -0.966997
81198 33536 14716 0.696515 -0.429264 -0.574978
81208 33544 14717 -0.494881 0.387725 0.777665
81214 33562 14719 0.534884 -0.54547 -0.645261
81215 33576 14720 0.459004 -0.680038 -0.57172
81226 33581 14720 -0.174887 0.560983 0.809143
81242 33575 14719 -0.071075 0.504288 0.860606
81249 33589 14720 -0.071075 0.504288 0.860606
81267 33580 14718 -0.0462531 -0.557337 -0.828997
81284 33573 14716 0.0363358 0.64787 0.760884
81292 33585 14717 0.0527006 0.714907 0.69723
81308 33566 14714 -0.270121 -0.958527 -0.0908851
81320 33570 14714 -0.166928 0.976766 -0.134397
81326 33586 14715 0.0475161 0.849299 0.525769
81347 33572 14713 -0.127324 0.919696 0.371412
81357 33579 14713 0.0137649 0.923179 0.384124
81377 33567 14710 -0.0642786 0.985854 0.15479
81385 33579 14711 -0.0471071 -0.990363 -0.130239
81394 33575 14710 -0.155372 -0.920864 0.357587
81413 33565 14708 -0.581705 -0.804659 0.118923
81425 33569 14708 -0.486353 -0.872447 0.0479319
81461 33525 14701 -0.381249 -0.917618 0.112364
81463 33550 14703 -0.522876 -0.8442 0.118016
81505 33496 14695 0.666126 0.742085 -0.0747393
81531 33458 14689 0.645077 0.739823 -0.191147
81541 33468 14690 0.645077 0.739823 -0.191147
81556 33469 14689 -0.635152 -0.762012 0.126173
81594 33424 14681 -0.65973 -0.683467 0.312455
82490 33405 14617 0.873357 0.487074 0.00256661
82427 33500 14631 0.962901 0.266278 0.0438012
82403 33554 14639 0.979585 0.148064 0.135979
82401 33580 14642 0.973549 -0.215556 0.0757448
82414 33587 14641 0.835383 -0.518677 0.18196
82417 33606 14643 0.982184 0.0161492 0.187227
82438 33602 14641 -0.644559 0.759952 -0.0837628
82401 33661 14650 0.991711 0.128406 -0.00459976
82382 33707 14656 -0.0253969 0.974495 -0.222965
82381 33731 14658 0.806976 -0.546582 -0.223692
82410 33717 14655 0.731386 -0.540835 -0.415418
82418 33729 14655 -0.375128 0.75474 0.538188
82434 33731 14654 -0.419647 0.690715 0.588905
82446 33739 14654 0.572096 -0.275572 -0.772507
82432 33766 14658 0.905197 -0.217084 -0.365366
82435 33784 14659 0.837104 -0.498662 -0.224928
82450 33789 14658 0.5407 -0.749696 -0.381575
82456 33802 14659 0.637914 -0.581892 -0.504447
82484 33791 14656 0.0245622 -0.616038 -0.787333
82493 33802 14656 0.178794 -0.47503 -0.861614
82523 33789 14652 0.508507 -0.615956 0.601679
82531 33790 14652 0.508507 -0.615956 0.601679
82515 33829 14657 -0.475111 0.4878 -0.732339
82514 33852 14659 0.874378 -0.0974331 0.475363
82515 33872 14661 0.973112 -0.220827 -0.0654816
82508 33900 14664 0.906532 -0.41487 -0.0779921
82526 33900 14663 0.863652 -0.451027 -0.225125
82534 33913 14663 0.703712 -0.65521 -0.274754
82532 33925 14664 0.65847 -0.726058 -0.198131
82545 33931 14664 -0.306486 0.858072 0.412041
82558 33937 14663 -0.266913 0.818071 0.509428
82576 33938 14662 0.0174952 -0.975553 -0.219068
82608 33924 14658 -0.190564 -0.959876 -0.205725
82612 33939 14659 -0.278472 -0.947573 -0.156715
82551 34015 14671 0.646709 0.27637 -0.710906
82484 34107 14686 0.900379 0.42364 -0.0992365
82431 34182 14697 0.98614 0.152717 -0.0648504
82473 34157 14691 0.992059 0.102142 0.0733874
82470 34179 14694 0.987842 0.127433 0.0890484
82467 34201 14696 0.9336 0.204856 0.293982
82460 34227 14699 0.843955 -0.535702 -0.0276298
82471 34224 14698 -0.365225 0.905949 -0.214165
82483 34230 14697 0.650085 -0.695753 0.305478
82535 34195 14689 0.310273 -0.886459 -0.343396
82538 34212 14691 0.703322 -0.668532 -0.241666
82526 34242 14694 0.50342 0.277099 -0.818403
82518 34268 14697 0.552872 0.0742963 0.829947
82529 34276 14697 0.369437 -0.0469222 -0.928071
82536 34278 14697 -0.453908 -0.278594 0.846376
82520 34312 14701 0.991328 -0.0961591 -0.0895706
82530 34320 14701 0.918695 0.0301717 -0.393815
82519 34348 14705 0.847015 -0.503161 -0.171451
82542 34344 14702 0.882867 -0.269015 -0.384937
82541 34363 14704 0.871998 -0.485404 -0.0632684
82534 34387 14707 0.864629 -0.104806 0.491358
82550 34381 14705 -0.492584 0.405382 -0.770082
82547 34401 14707 0.874142 -0.147618 0.462693
82550 34416 14708 -0.676304 0.106987 -0.728812
82538 34444 14711 0.943484 -0.211442 -0.255208
82545 34454 14711 0.952002 -0.227456 -0.204833
82575 34443 14708 -0.0637192 0.0392202 -0.997197
82547 34478 14713 0.956687 -0.172217 -0.234715
82568 34476 14711 0.732352 -0.336824 0.591786
82577 34484 14711 0.812452 0.0203166 0.582674
82558 34519 14716 0.933293 -0.0439782 -0.356412
82565 34529 14716 0.999662 0.00276292 0.0258371
82562 34548 14718 0.959267 -0.0581005 -0.276463
82563 34564 14719 0.995238 -0.0233248 -0.0946415
82554 34580 14721 0.99498 0.0247509 -0.0969606
82554 34596 14723 0.944363 0.255063 -0.207657
82527 34637 14729 0.871378 0.132528 -0.472373
82563 34621 14724 0.914061 0.0496305 -0.40253
82578 34624 14723 0.824148 0.378682 -0.421164
82562 34654 14727 0.501605 0.766639 -0.400821
82581 34654 14725 0.138056 0.97539 -0.171912
82674 34584 14710 0.0953861 -0.99544 0.000799621
82878 34428 14677 0.471542 0.87977 -0.060441
82905 34423 14674 0.452139 0.889678 -0.0635863
83182 34211 14629 0.630312 0.776232 0.0130687
83335 34103 14606 0.164264 0.979521 0.116433
83350 34110 14605 -0.085605 0.970408 0.225788
83363 34110 14603 0.0285027 0.947415 0.318736
83409 34091 14597 0.217359 0.969269 0.115209
83413 34108 14598 -0.295643 0.913964 0.277966
83416 34125 14599 -0.428656 0.838362 0.336754
83405 34153 14603 -0.382782 0.776387 0.5007
83468 34153 14596 -0.353507 0.935138 0.0234594
83480 34162 14596 0.247437 -0.532111 -0.809712
83513 34156 14592 -0.0390571 0.644959 0.763218
83535 34159 14590 -0.313972 0.494131 0.810713
83538 34176 14591 -0.388721 0.5972 0.701604
83538 34196 14592 -0.388721 0.5972 0.701604
83557 34201 14591 0.26931 -0.695119 -0.666544
83573 34199 14589 -0.197941 -0.930027 -0.309629
83560 34228 14593 0.718017 -0.385382 -0.579597
91652 39132 13575 0.34122 -0.939944 0.00857985
91669 39173 13572 0.34122 -0.939944 0.00857985
88677 39289 13964 0.750341 -0.658611 0.0567398
88728 39332 13956 -0.596899 0.796713 -0.094658
88666 39347 13964 -0.582664 0.810896 -0.0543129
85686 39489 14343 0.778018 0.625281 0.0609275
85651 39497 14347 0.399143 0.903032 0.158801
85577 39490 14356 0.841243 -0.469826 0.267533
85636 39535 14347 0.193078 0.972374 0.131182
65099 40757 13207 0.681117 0.731931 0.0188554
81096 33409 14678 0.949746 -0.264503 0.167392
81110 33408 14677 0.920337 -0.314536 0.23248
81110 33440 14681 0.576272 -0.64063 -0.507448
81120 33451 14682 0.0491945 -0.872068 -0.486906
81122 33462 14684 -0.395084 -0.905492 0.154897
81134 33465 14683 -0.325593 -0.895667 0.302937
81153 33454 14681 0.103572 0.958488 -0.265658
81172 33440 14678 -0.0867001 0.94141 -0.325931
81180 33454 14680 -0.118099 0.937585 -0.327088
81196 33448 14678 -0.372809 0.924401 -0.0805984
81208 33453 14678 0.537154 -0.83858 -0.0908229
81219 33443 14676 -0.28045 0.931634 -0.231095
81220 33472 14680 -0.58354 0.615705 0.529517
81235 33470 14679 0.748942 -0.657908 -0.0790178
81236 33498 14682 -0.676157 0.724787 0.132271
81250 33498 14681 -0.639586 0.753561 0.151905
81260 33507 14682 -0.576549 0.766755 0.282272
81270 33514 14682 -0.499487 0.856337 0.131145
81273 33524 14683 0.502892 -0.863716 -0.0330739
81286 33525 14683 -0.450475 0.89207 -0.0358083
81300 33525 14682 -0.327179 0.913719 0.240979
81306 33541 14683 0.277701 -0.911669 0.302889
81320 33542 14683 0.149456 -0.883405 0.444138
81339 33531 14680 -0.155512 0.954085 0.256003
81342 33539 14681 -0.149334 0.973194 -0.174908
81363 33525 14678 0.132526 -0.988878 0.067509
81369 33541 14680 0.0528905 -0.997946 -0.0361554
81383 33541 14679 0.0666787 0.997627 -0.0171626
81401 33535 14677 -0.251225 -0.966868 0.0452978
81413 33539 14677 -0.288968 -0.933009 0.214456
81429 33535 14675 -0.27593 -0.896855 0.345708
81440 33528 14674 0.220901 0.97356 -0.0581699
81456 33525 14672 -0.456891 -0.869905 0.185785
81486 33495 14667 -0.612662 -0.774899 0.155488
81504 33489 14665 0.619599 0.752485 -0.223302
81546 33437 14656 -0.659565 -0.68517 0.309058
81571 33419 14653 -0.63245 -0.704012 0.32307
81595 33403 14649 -0.608388 -0.730564 0.310066
81712 33200 14618 0.805601 0.58815 -0.0713213
82398 33232 14572 0.251285 -0.689818 0.678975
82401 33254 14575 -0.0274881 0.565474 -0.824308
82412 33264 14575 0.773669 -0.465422 -0.429905
82422 33264 14574 0.729952 -0.660015 0.177623
82419 33294 14577 0.773669 -0.465422 -0.429905
82434 33298 14577 0.76363 -0.274776 0.584267
82464 33283 14573 -0.274645 0.444163 -0.852812
82534 33328 14572 0.954341 0.078297 0.288276
82536 33350 14574 0.938294 0.345813 0.00420278
82520 33395 14580 0.931614 0.363399 0.00596958
82464 33490 14595 0.985187 -0.0193264 0.170388
82442 33530 14601 0.985591 0.146526 0.0844997
82445 33550 14603 0.977236 -0.203945 -0.0584468
82445 33572 14605 0.989842 -0.133577 0.0486882
82462 33574 14604 0.983963 0.00347793 -0.178336
82455 33606 14608 0.984707 -0.0446823 -0.168392
82461 33621 14609 0.964999 -0.155771 -0.210981
82438 33671 14616 0.398762 -0.776336 -0.488151
82437 33683 14618 -0.0840339 0.942667 0.322982
82464 33672 14614 0.793754 -0.370674 -0.482241
82478 33678 14614 0.774876 -0.517282 -0.3633
82478 33700 14616 0.72907 -0.681509 -0.063268
82492 33706 14615 0.93087 -0.343527 -0.124379
82491 33728 14618 0.858135 -0.464923 -0.217831
82493 33748 14619 0.633526 -0.515161 -0.577282
82503 33746 14618 0.600229 -0.691807 -0.401408
82509 33762 14619 0.358165 -0.848487 0.389599
82527 33762 14618 0.298866 -0.90035 0.316305
82539 33769 14618 0.414441 -0.801024 0.43197
82572 33753 14613 0.070809 -0.799082 0.597037
82600 33744 14610 -0.0864268 0.843276 -0.530487
82599 33756 14611 -0.164768 0.69787 -0.697015
82581 33796 14617 0.765852 0.00552076 0.642993
82573 33826 14620 0.908961 -0.330314 0.254326
82566 33854 14624 0.884644 -0.328935 0.330465
82539 33905 14631 0.753156 -0.413095 0.511965
82587 33873 14624 0.684329 -0.433769 -0.586122
82600 33880 14623 -0.62107 0.702948 0.346607
82605 33884 14623 0.724777 -0.682964 -0.0908726
82602 33908 14626 -0.641501 0.748317 0.168812
82618 33912 14625 -0.615885 0.67011 0.414292
82629 33920 14625 0.779985 -0.625249 -0.0261936
82646 33922 14623 0.548977 -0.835066 -0.0359011
82666 33922 14621 -0.39321 -0.904389 -0.16573
82504 34110 14655 0.907566 0.385808 -0.165761
82464 34160 14663 0.963626 0.179736 -0.197785
82485 34158 14661 0.989302 -0.0470388 -0.138087
82482 34179 14664 0.708119 -0.645091 -0.287098
82476 34204 14666 0.937704 0.0272975 -0.34636
82498 34200 14664 -0.290984 0.716596 -0.633891
82507 34209 14664 0.0561534 -0.992928 -0.104594
82525 34210 14662 0.381775 -0.88538 -0.265238
82536 34208 14661 0.270803 -0.917254 -0.29208
82550 34213 14660 -0.476908 0.835566 0.272741
82557 34224 14661 0.813948 -0.472825 -0.337528
82520 34278 14669 0.922898 -0.0242248 -0.384283
82499 34317 14675 0.569119 0.447171 -0.690031
82491 34342 14678 0.510756 0.859628 -0.0129225
82509 34333 14676 -0.381129 0.808643 0.448148
82527 34334 14674 0.770903 -0.418081 -0.480537
82553 34327 14671 -0.0117336 -0.504831 -0.863138
82583 34316 14667 0.0735697 -0.532845 -0.843009
82586 34331 14668 0.538988 -0.612746 -0.577956
82572 34361 14672 0.450522 -0.81587 0.362472
82581 34371 14672 -0.674782 0.637164 -0.372414
82587 34374 14672 0.7614 -0.625317 0.171023
82611 34369 14669 0.890627 -0.453307 0.0360154
82608 34389 14671 0.855854 -0.51673 -0.0224448
82613 34402 14672 0.855161 -0.504271 0.120043
82615 34417 14673 0.907193 -0.297928 0.29705
82612 34437 14675 0.887184 0.169593 -0.429118
82636 34425 14672 0.986971 -0.159505 0.02112
82640 34438 14672 0.990464 -0.137752 -0.00238547
82614 34478 14679 0.807908 0.201949 -0.553625
82616 34493 14680 0.777986 0.180026 -0.601937
82605 34519 14683 0.700805 -0.203508 -0.683708
82609 34532 14684 0.902825 0.0839833 -0.421726
82587 34568 14689 -0.0435875 0.967449 0.249285
82597 34567 14688 -0.562103 -0.425721 -0.709085
82604 34578 14688 0.303103 -0.228312 -0.925204
82616 34583 14688 0.392798 -0.543308 -0.741974
82655 34567 14682 0.279662 -0.952653 -0.119338
82631 34604 14688 0.0413276 0.998855 0.0241008
82665 34592 14683 0.146786 0.988542 -0.0352037
82722 34561 14675 -0.317337 -0.918729 0.23502
82830 34481 14657 0.522369 0.837936 -0.158096
82976 34380 14633 0.432402 0.899694 -0.0598226
83014 34367 14628 0.491961 0.857741 0.14918
83380 34091 14566 0.136783 0.985292 -0.102425
83450 34055 14556 -0.117942 -0.992994 -0.00720616
83447 34077 14558 0.0721994 0.996767 -0.0352488
83485 34067 14553 0.203008 -0.938792 -0.278313
83512 34056 14549 -0.223265 0.947582 0.228563
83476 34104 14557 0.858258 -0.461125 0.225292
83517 34092 14552 0.200196 -0.967594 -0.153894
83597 34069 14541 -0.467446 0.658913 0.589345
83598 34089 14543 0.563658 -0.174163 -0.807438
83584 34110 14546 0.563658 -0.174163 -0.807438
83591 34123 14546 -0.53072 0.240687 0.812654
83612 34128 14544 -0.351841 0.450461 0.820544
83610 34149 14546 0.232219 -0.733773 -0.638476
83634 34151 14544 0.449638 -0.847112 -0.283243
83655 34155 14542 0.438295 -0.897869 -0.0415859
88655 39278 13905 -0.596899 0.796713 -0.094658
88633 39303 13907 -0.596899 0.796713 -0.094658
88634 39333 13906 -0.596899 0.796713 -0.094658
85667 39473 14302 0.830026 0.556045 -0.043261
85635 39482 14306 0.494066 0.861103 0.120004
85624 39500 14306 0.494066 0.861103 0.120004
85617 39519 14306 0.229846 0.970071 0.0783168
85631 39536 14303 0.494066 0.861103 0.120004
81079 33423 14653 0.98117 0.114885 0.155262
81074 33470 14660 0.589689 -0.534044 0.605859
81090 33462 14658 -0.586359 0.0412302 -0.809001
81093 33473 14659 0.00161991 -0.861375 0.507967
81104 33478 14659 -0.12935 -0.847368 0.51501
81123 33465 14657 0.283924 0.921521 -0.264926
81143 33449 14653 -0.0612677 -0.859653 0.507191
81165 33428 14650 0.222992 -0.870821 0.438115
81178 33430 14649 0.335565 -0.773675 0.537423
81179 33460 14653 0.334716 -0.926657 0.171088
81191 33450 14651 0.604076 -0.794904 -0.0567454
81197 33468 14653 0.671946 -0.736555 -0.0773008
81211 33465 14652 0.466224 -0.881986 0.0688229
81217 33485 14654 0.730711 -0.67113 0.125084
81227 33494 14655 -0.690754 0.720192 -0.0646749
81236 33503 14655 0.717914 -0.696099 0.00678591
81244 33502 14655 0.61964 -0.784465 -0.0257266
81254 33508 14655 0.520308 -0.846056 0.116058
81264 33517 14655 0.457824 -0.883254 0.101295
81271 33533 14657 0.400036 -0.908814 0.118444
81287 33528 14655 0.416698 -0.897 0.147489
81300 33530 14655 0.428285 -0.88947 0.159423
81314 33530 14654 0.319042 -0.947226 0.0312144
81317 33538 14655 0.334653 -0.941967 0.0265713
81323 33554 14657 -0.338119 0.940261 0.0398157
81344 33540 14653 0.188554 -0.975041 0.117228
81353 33550 14654 0.50782 -0.86134 -0.0145903
81363 33558 14655 0.327534 -0.933204 -0.147824
81376 33560 14654 0.0612021 0.937527 0.342488
81398 33544 14651 0.227945 0.968243 -0.102701
81412 33531 14648 0.243963 0.961318 -0.127867
81426 33531 14647 0.348483 0.93654 -0.0380972
81447 33517 14644 0.474804 0.86862 -0.141637
81463 33514 14643 0.486699 0.859895 -0.153961
81486 33497 14639 0.597439 0.777599 -0.195975
81527 33445 14630 0.683394 0.673508 -0.281708
81563 33390 14621 -0.613927 -0.746508 0.256554
81573 33400 14621 -0.613927 -0.746508 0.256554
82380 33257 14544 0.95961 -0.248666 -0.131584
82398 33257 14542 0.878964 0.434745 -0.19601
82393 33290 14547 0.870666 -0.414129 -0.2654
82401 33305 14548 0.824604 -0.549852 -0.133008
82412 33316 14548 0.824604 -0.549852 -0.133008
82424 33325 14548 0.752907 -0.544 0.370397
82531 33294 14535 0.739172 -0.642343 0.202537
82518 33336 14541 0.962309 0.105835 0.250519
82507 33375 14547 0.938294 0.345813 0.00420278
82486 33416 14553 0.908333 0.414926 0.052597
82441 33499 14566 0.95174 0.0219154 0.30612
82434 33531 14571 0.930262 0.171203 0.324503
82423 33568 14576 0.962159 0.0040844 0.272458
82430 33584 14577 0.993984 -0.0254557 0.106531
82429 33608 14579 0.990187 0.112312 0.083159
82436 33622 14580 0.97819 0.143761 -0.149922
82405 33672 14589 0.986535 0.0694234 0.148085
82392 33711 14594 -0.0534525 0.953551 -0.296451
82415 33704 14591 0.0985558 -0.967881 -0.231286
82434 33704 14590 -0.21237 0.536052 0.817036
82446 33711 14589 -0.0986527 0.773053 0.626623
82461 33714 14588 -0.129547 0.920418 -0.368847
82472 33712 14587 -0.647992 0.648004 0.400246
82462 33746 14592 -0.599936 0.714032 0.360881
82474 33753 14591 0.618609 -0.692271 0.371595
82502 33743 14588 -0.555904 0.752194 -0.3538
82514 33750 14587 0.253558 -0.857709 0.447263
82509 33777 14591 -0.427455 0.855282 -0.292874
82541 33761 14586 0.253608 -0.813213 0.523801
82549 33763 14585 -0.23352 0.602792 -0.762961
82566 33764 14584 -0.0883906 0.630408 -0.771215
82546 33810 14591 -0.541 0.17508 -0.822597
82563 33811 14589 0.725813 -0.0477216 0.686235
82543 33855 14596 0.907042 -0.0300794 0.419964
82547 33872 14597 0.917893 -0.173656 0.356813
82560 33878 14597 -0.570903 0.248017 -0.782661
82558 33890 14598 -0.570903 0.248017 -0.782661
82559 33909 14600 -0.449132 0.76384 -0.463496
82583 33904 14597 -0.562987 0.698568 0.441642
82580 33928 14600 -0.478338 0.872232 -0.102001
82605 33921 14597 0.792919 -0.51774 0.321286
82621 33924 14595 0.767958 -0.599219 0.226223
82629 33936 14596 0.619801 -0.766478 -0.168396
82620 33955 14599 0.30322 -0.739355 -0.601175
82455 34151 14635 0.919471 0.331687 -0.211087
82439 34187 14640 0.852259 0.52255 0.0244017
82418 34228 14646 0.993955 0.107751 -0.0210513
82423 34241 14647 0.978422 -0.096642 -0.182622
82431 34251 14648 0.768132 -0.436516 -0.468431
82437 34254 14647 0.768132 -0.436516 -0.468431
82464 34245 14644 0.118199 0.301626 0.946071
82476 34251 14643 0.245986 0.191955 0.950076
82491 34254 14642 0.00549208 -0.0404024 0.999168
82466 34297 14649 -0.526583 0.308587 -0.792139
82460 34322 14652 0.963563 0.264675 -0.0386505
82456 34343 14654 0.872437 0.370117 0.319166
82461 34348 14654 0.872437 0.370117 0.319166
82461 34365 14656 0.812847 -0.10766 0.572442
82461 34382 14658 -0.697515 0.140579 -0.702645
82458 34402 14660 0.781232 -0.340578 0.523147
82463 34416 14661 0.804692 -0.490656 0.334257
82483 34414 14659 0.756046 -0.565451 0.329636
82493 34413 14657 0.756046 -0.565451 0.329636
82493 34430 14659 0.768659 -0.62725 0.125383
82497 34443 14660 0.704396 -0.651286 0.28223
82501 34456 14661 0.757686 -0.582204 -0.294874
82517 34459 14659 -0.196582 0.244101 -0.949616
82538 34456 14657 0.840481 -0.444451 -0.309927
82554 34458 14655 0.731005 -0.384688 -0.563602
82513 34504 14664 0.894113 -0.295706 -0.336332
82536 34500 14661 0.0214458 0.0443264 -0.998787
82525 34527 14665 0.84325 -0.47361 -0.254209
82551 34520 14662 -0.632168 0.400434 -0.663337
82543 34544 14665 0.899723 -0.383556 -0.208287
82557 34548 14664 0.758182 -0.650999 -0.0368875
82560 34562 14665 0.600533 -0.286363 -0.746563
82567 34564 14664 0.624195 -0.337578 -0.704572
82566 34582 14666 0.536482 -0.205765 -0.818443
82568 34596 14667 0.617832 -0.571157 -0.540428
82565 34615 14669 0.346864 -0.808945 0.47465
82591 34608 14666 -0.122711 0.990792 -0.057207
82616 34604 14662 0.144868 0.970666 -0.191886
82671 34573 14654 -0.225344 -0.904563 0.361919
82738 34524 14642 0.426323 0.848893 -0.312456
82852 34445 14622 0.483976 0.872136 -0.07173
82908 34416 14614 0.452139 0.889678 -0.0635863
82935 34411 14610 0.420096 0.907416 -0.0107974
83357 34099 14536 0.0863512 0.987023 -0.135381
83393 34079 14530 -0.197021 -0.974895 0.103743
83412 34084 14529 -0.0766212 -0.997052 0.00401587
83454 34070 14523 -0.341867 0.921758 0.183002
83476 34072 14521 0.336393 -0.853641 -0.397664
83467 34099 14524 0.323735 -0.928575 -0.181505
83470 34116 14525 0.357661 -0.920272 -0.158677
83497 34115 14522 -0.349971 0.92744 0.131817
83526 34101 14518 0.0933979 -0.563918 -0.820532
83552 34101 14515 -0.369511 0.849256 0.377128
83553 34120 14516 0.462442 -0.293746 -0.836577
83546 34146 14519 0.625183 -0.526775 -0.575895
83572 34145 14516 0.664855 -0.360209 -0.654383
83563 34172 14519 0.628321 -0.563349 -0.536517
83574 34183 14519 0.601282 -0.621158 -0.502616
83605 34169 14514 0.247814 -0.626457 -0.739012
83651 34154 14508 0.0436475 0.841266 0.538856
83626 34193 14514 0.233813 0.950068 0.206647
88648 39275 13864 0.322295 -0.946302 0.0252636
88651 39306 13862 0.322295 -0.946302 0.0252636
88651 39321 13862 0.322295 -0.946302 0.0252636
85673 39479 14271 0.80135 0.595507 -0.0566554
85638 39487 14276 -0.654709 -0.745192 0.126666
85667 39521 14270 0.80135 0.595507 -0.0566554
85654 39527 14271 -0.616496 -0.773803 0.145472
85630 39539 14274 -0.616496 -0.773803 0.145472
81115 33337 14622 0.33009 -0.398923 0.855512
81109 33384 14628 0.81818 -0.387753 0.424534
81117 33400 14630 0.71763 -0.594291 0.363078
81126 33412 14631 0.593207 -0.799851 0.0913451
81122 33454 14637 -0.492507 -0.81246 0.312002
81142 33438 14634 -0.0452803 0.800652 -0.597416
81153 33430 14632 -0.178945 -0.803698 0.567494
81181 33395 14626 -0.243967 0.532742 -0.810349
81202 33380 14623 0.3272 -0.653762 0.682302
81185 33450 14633 0.394325 -0.876298 0.276783
81198 33451 14632 -0.538224 0.652581 -0.533341
81212 33453 14632 -0.56894 0.649908 -0.503912
81232 33438 14629 0.631475 -0.722422 0.281683
81234 33450 14630 0.736094 -0.620486 0.270487
81240 33467 14632 0.746346 -0.541739 0.386636
81244 33489 14635 0.563233 -0.755637 0.334337
81251 33505 14636 0.685855 -0.666243 0.292785
81260 33513 14637 0.540831 -0.828701 0.144073
81278 33504 14635 -0.450931 0.882729 -0.132098
81281 33514 14636 -0.315857 0.933249 -0.171115
81293 33518 14636 -0.428182 0.870789 0.241635
81306 33519 14635 -0.295811 0.952879 -0.0672082
81306 33548 14639 0.241452 -0.748362 -0.617782
81326 33536 14636 0.0176037 0.770676 0.636984
81348 33520 14632 -0.056054 0.987086 -0.150064
81357 33531 14633 -0.153785 0.976866 -0.148601
81365 33528 14632 0.0196635 0.951913 -0.305737
81370 33546 14634 0.105293 0.869179 -0.483157
81366 33583 14640 0.497559 -0.15761 -0.852991
81409 33525 14629 0.201031 0.959736 -0.196195
81420 33533 14629 -0.130279 -0.964477 -0.229809
81432 33537 14629 -0.232736 -0.938349 -0.255607
81453 33523 14626 0.56157 0.799079 0.214737
81482 33482 14619 0.611812 0.753167 -0.241715
81487 33500 14621 0.667086 0.744948 -0.00705085
81536 33435 14609 0.691406 0.680218 -0.243436
81563 33413 14604 -0.628622 -0.744581 0.224576
81601 33370 14596 -0.611608 -0.730282 0.304342
81622 33359 14593 -0.611608 -0.730282 0.304342
82394 33245 14520 0.366794 0.928664 0.055187
82432 33219 14513 0.068596 0.975211 0.210377
82440 33232 14514 0.00580357 0.999578 0.0284584
82428 33275 14520 0.819242 -0.150047 0.55347
82452 33255 14516 0.0704578 -0.986213 0.149734
82440 33296 14522 -0.271073 -0.927768 0.25645
82504 33237 14509 -0.437119 0.721905 0.53645
82547 33294 14512 0.893987 -0.444183 -0.0590721
82543 33324 14516 0.963961 -0.0172571 -0.265485
82550 33339 14517 0.985304 0.153286 -0.0753665
82513 33411 14529 0.92296 0.383327 -0.0347189
82460 33502 14544 0.958361 0.15511 0.239758
82473 33508 14543 0.958361 0.15511 0.239758
82458 33539 14548 0.954457 0.120342 0.273002
82452 33569 14552 0.927212 0.244945 0.283337
82495 33540 14545 0.989009 0.00727598 0.147678
82447 33621 14559 0.963022 0.0814394 -0.256819
82437 33656 14564 0.985129 -0.15905 0.064985
82440 33674 14565 0.383894 -0.808947 0.44523
82426 33713 14571 0.339125 -0.789381 0.511734
82443 33704 14569 0.25363 -0.821418 0.510827
82469 33695 14565 -0.340755 0.870066 -0.35619
82482 33701 14564 0.478247 -0.816275 0.323999
82490 33713 14565 0.499089 -0.769357 0.398749
82502 33720 14565 0.505439 -0.698841 0.506116
82509 33734 14566 0.458997 -0.72554 0.512751
82501 33766 14570 0.303156 -0.742547 0.597261
82541 33730 14562 0.148555 -0.809424 0.568124
82543 33750 14564 -0.161581 0.772295 -0.614371
82590 33717 14556 0.0407636 -0.941936 0.333309
82593 33736 14558 -0.0362771 -0.964654 0.261012
82597 33752 14559 0.288128 0.955725 -0.0597724
82623 33744 14556 0.951285 0.185858 0.245994
82598 33783 14562 0.942457 -0.0122009 0.334104
82586 33817 14567 0.866864 0.101277 0.48815
82597 33826 14567 0.923896 0.0284974 0.38158
82587 33858 14572 0.670705 -0.22174 0.707804
82589 33876 14573 0.698624 -0.57893 0.420435
82594 33891 14575 0.449878 -0.704455 0.548956
82603 33902 14575 0.469505 -0.696593 0.542515
82623 33891 14572 0.568679 -0.718364 0.400697
82632 33902 14572 0.607742 -0.714237 0.347153
82637 33917 14573 0.907827 -0.401345 0.121539
82631 33944 14577 0.96737 0.182632 -0.175617
82632 33962 14578 0.850894 0.46885 -0.236978
82486 34134 14611 0.935414 0.209475 -0.284818
82464 34165 14617 0.891542 0.0595109 -0.449011
82460 34188 14620 0.857724 -0.0554977 -0.511106
82455 34211 14623 0.812672 0.123493 -0.569485
82466 34219 14622 0.641587 -0.0306407 -0.766438
82453 34250 14627 0.0519038 -0.781662 -0.621539
82488 34233 14621 -0.245352 0.410617 0.878178
82513 34227 14618 0.203385 -0.450781 -0.869155
82527 34221 14616 0.203385 -0.450781 -0.869155
82514 34253 14621 0.380203 -0.353417 -0.854717
82502 34283 14625 0.993433 -0.110056 0.0312845
82501 34301 14627 0.983905 0.170697 -0.0528501
82503 34317 14629 0.934453 -0.270663 0.231386
82483 34354 14634 0.791542 0.10309 0.602356
82500 34355 14633 -0.296133 -0.779158 -0.552465
82505 34359 14633 0.949567 0.309114 0.0526464
82516 34366 14632 0.950111 0.00691933 -0.311836
82493 34405 14638 0.762478 -0.510394 0.397649
82493 34422 14640 0.840483 -0.502801 0.201941
82513 34420 14638 0.910388 -0.411363 0.0444262
82510 34440 14640 0.789725 -0.59148 -0.162744
82516 34452 14641 -0.659237 0.631519 0.408154
82517 34459 14641 -0.535192 0.515485 0.669212
82536 34459 14639 0.700843 -0.453119 -0.55091
82525 34486 14643 -0.611926 0.270205 0.743327
82548 34482 14640 0.747172 -0.297015 -0.594573
82535 34511 14645 0.970327 -0.14835 -0.190939
82561 34504 14641 0.886756 -0.109999 -0.448959
82537 34534 14647 0.913573 -0.344783 -0.215658
82542 34545 14647 0.896945 -0.426194 -0.117677
82568 34539 14644 0.868495 -0.492737 -0.0540963
82545 34576 14650 0.902762 -0.417385 -0.103971
82566 34573 14647 0.737549 -0.66829 -0.097005
82597 34563 14643 0.15157 -0.959383 -0.237931
82610 34569 14642 -0.0186385 -0.997326 0.0706692
82585 34598 14647 0.450704 -0.735871 0.505332
82640 34568 14638 -0.203073 -0.948278 0.243989
82654 34572 14637 -0.23317 -0.947894 0.217093
82722 34533 14626 0.398091 0.850767 -0.343101
82799 34486 14613 0.565333 0.82378 -0.0422565
82905 34416 14595 0.452139 0.889678 -0.0635863
82946 34400 14588 -0.400539 -0.904486 -0.146538
82959 34398 14587 -0.445911 -0.872583 -0.199406
83027 34361 14576 -0.507917 -0.837591 -0.201149
83406 34075 14506 -0.0767468 -0.996974 0.0123379
83439 34069 14502 0.108164 -0.980085 -0.166537
83444 34085 14503 0.285957 -0.95522 -0.0760487
83474 34081 14499 0.336362 -0.909112 -0.245715
83477 34098 14500 0.353931 -0.928051 -0.11599
83507 34084 14496 -0.0459692 0.966173 0.253766
83523 34092 14494 0.258268 -0.799792 -0.541876
83552 34090 14491 0.651333 -0.410125 -0.638406
83550 34111 14493 0.652147 -0.436458 -0.619845
83557 34125 14494 0.831643 -0.338416 -0.440278
83579 34128 14491 0.744162 -0.416421 -0.522318
83553 34157 14497 0.792389 -0.450289 -0.411533
83575 34160 14494 0.756089 -0.490002 -0.433851
83602 34160 14491 0.436317 -0.647631 -0.624661
83664 34134 14482 -0.0816759 0.766701 0.636787
83672 34148 14482 0.0735312 0.958545 0.275292
88678 39259 13793 0.0079996 0.998681 -0.0507078
88648 39282 13797 0.0079996 0.998681 -0.0507078
88719 39328 13785 -0.399315 0.914995 0.0577235
85668 39455 14226 -0.590827 -0.795247 0.136036
85665 39475 14226 -0.635981 -0.75773 0.146199
85650 39492 14227 -0.637209 -0.754606 0.156635
85631 39506 14229 -0.664343 -0.741039 0.0975173
85578 39507 14236 0.62914 0.756504 -0.178566
81111 33309 14588 -0.0903794 0.130619 -0.987305
81103 33365 14597 -0.16085 0.231393 -0.959471
81102 33405 14602 -0.498057 0.278904 -0.821068
81110 33419 14604 0.4921 -0.605423 0.62554
81121 33424 14604 -0.414329 0.598756 -0.685437
81124 33434 14605 -0.339027 0.726806 -0.59734
81140 33429 14604 -0.194231 0.865893 -0.460981
81160 33414 14600 0.00748999 0.999971 -0.00159409
81165 33433 14603 -0.0200856 0.944665 -0.327421
81184 33422 14600 -0.372529 0.519423 -0.76904
81199 33420 14599 -0.224667 0.479966 -0.848031
81205 33420 14598 0.233432 -0.0934535 -0.967872
81212 33438 14601 -0.535333 0.774767 -0.336383
81219 33454 14602 0.639254 -0.687367 0.344791
81224 33474 14605 0.764595 -0.555236 0.327272
81238 33473 14604 0.764595 -0.555236 0.327272
81248 33482 14605 0.8429 -0.537885 -0.0141047
81252 33504 14607 0.72472 -0.668023 0.168896
81263 33495 14605 0.699236 -0.712079 0.0633449
81264 33522 14609 0.735564 -0.649087 -0.193989
81276 33528 14609 0.736455 -0.5831 -0.342971
81276 33556 14613 0.602631 -0.641013 -0.47533
81292 33552 14611 -0.546477 0.591598 0.592768
81301 33561 14612 0.592097 -0.580169 -0.559307
81309 33576 14614 0.568593 -0.339254 -0.749406
81322 33562 14611 -0.0667963 0.740514 0.668713
81307 33623 14620 0.30642 -0.147455 -0.940406
81323 33618 14618 0.30642 -0.147455 -0.940406
81325 33641 14621 0.66132 -0.389465 -0.641072
81336 33648 14622 0.677928 -0.366354 -0.637337
81335 33677 14626 0.341835 -0.638784 -0.689278
81358 33644 14620 0.193407 -0.170559 -0.96618
81354 33680 14625 0.341835 -0.638784 -0.689278
81384 33648 14618 0.399659 0.370648 0.838387
81406 33631 14615 -0.535442 -0.433649 -0.724741
81451 33569 14603 -0.553431 -0.543942 -0.630747
81535 33434 14579 0.687488 0.689432 -0.228129
81579 33377 14568 0.775226 0.602774 0.188915
81588 33375 14567 0.775226 0.602774 0.188915
81622 33339 14560 0.795894 0.595023 0.111802
82380 33249 14487 -0.194595 0.721931 -0.66404
82376 33268 14489 -0.194595 0.721931 -0.66404
82408 33247 14484 -0.22904 0.888269 -0.398143
82411 33269 14486 -0.22904 0.888269 -0.398143
82433 33265 14484 0.0777234 0.879141 -0.470181
82443 33277 14485 0.0454868 0.534578 -0.843894
82468 33269 14481 0.204904 -0.366238 -0.907681
82512 33324 14484 0.724721 -0.249378 -0.642332
82517 33342 14486 0.707152 -0.197941 -0.67879
82525 33356 14487 0.941612 0.335578 -0.027475
82518 33391 14492 0.942089 0.335299 -0.00649685
82457 33481 14508 0.952888 0.267126 0.143697
82459 33503 14511 0.938307 0.221162 0.265834
82468 33515 14511 0.958361 0.15511 0.239758
82445 33568 14520 0.913775 0.189045 0.359551
82463 33569 14518 0.913775 0.189045 0.359551
82425 33640 14530 0.867861 -0.0193801 0.496429
82416 33673 14535 0.685579 -0.357234 0.634323
82425 33673 14534 0.685579 -0.357234 0.634323
82430 33690 14536 0.367623 -0.731576 0.574151
82444 33694 14535 0.459506 -0.790643 0.404644
82469 33686 14532 -0.496993 0.866688 0.0430172
82480 33695 14532 -0.372055 0.90049 -0.225151
82488 33707 14532 -0.297098 0.901994 -0.313272
82487 33719 14534 -0.399717 0.850325 -0.342306
82510 33715 14531 -0.474056 0.80418 -0.358561
82533 33709 14528 -0.299234 0.889914 -0.344257
82546 33715 14527 -0.224787 0.944523 -0.239472
82541 33744 14531 0.207883 -0.790048 0.576722
82560 33743 14529 0.15391 -0.827844 0.539431
82584 33737 14526 -0.118084 0.351273 -0.928797
82588 33743 14526 -0.118084 0.351273 -0.928797
82613 33736 14523 0.225246 -0.224849 0.948002
82644 33722 14518 0.782243 -0.622679 -0.0191455
82594 33801 14532 0.839074 -0.103744 0.534034
82607 33807 14532 0.894617 0.0508943 0.443927
82599 33838 14536 0.828509 -0.0995204 0.551062
82574 33876 14543 0.69581 -0.274434 0.663727
82583 33887 14543 -0.553686 0.647849 -0.523186
82601 33888 14542 0.554838 -0.671033 0.491802
82605 33904 14543 0.513385 -0.78581 0.344874
82631 33896 14539 0.645814 -0.644724 0.408969
82640 33907 14540 0.649014 -0.634625 0.419562
82601 33969 14551 0.948485 0.278898 -0.150305
82583 33998 14556 0.509568 0.159328 0.84555
82461 34149 14585 0.884586 0.188658 -0.426517
82441 34188 14592 0.969302 0.244149 0.0290559
82434 34214 14595 0.878329 0.212924 0.428019
82434 34233 14598 0.988384 0.104227 0.110605
82431 34255 14600 0.933449 -0.25958 0.24757
82448 34255 14598 0.788867 -0.307895 -0.531874
82443 34269 14601 0.758631 -0.628135 -0.172989
82449 34281 14601 -0.5845 0.787929 0.193718
82468 34280 14599 -0.467319 0.628804 0.621465
82474 34292 14600 -0.591744 0.585589 0.554008
82492 34293 14598 0.453499 -0.419929 -0.786129
82506 34296 14597 0.38782 -0.0846441 -0.917841
82515 34305 14597 0.0729434 0.252318 -0.964891
82487 34342 14604 0.794066 -0.0833517 0.60209
82479 34368 14607 0.725771 0.0948789 0.681362
82489 34375 14607 0.827983 -0.194502 0.52594
82491 34391 14608 0.986758 0.0075373 -0.162026
82492 34407 14610 0.995266 -0.05176 -0.0822547
82500 34418 14610 0.962634 -0.270523 -0.0123928
82490 34436 14613 0.976491 -0.162922 -0.141142
82495 34448 14614 0.94221 -0.251549 -0.221276
82499 34461 14615 0.884658 -0.277817 -0.374429
82496 34481 14617 0.898113 -0.208626 -0.387128
82497 34497 14619 0.766412 -0.170402 -0.619334
82522 34491 14615 -0.555392 0.317952 0.768405
82518 34511 14618 0.738171 -0.57075 -0.35965
82520 34518 14618 0.77945 -0.602389 -0.172005
82528 34527 14618 0.763216 -0.46395 -0.449724
82549 34525 14616 0.828095 -0.32057 -0.459885
82546 34544 14618 0.866109 -0.491726 -0.0897814
82545 34562 14620 0.844183 -0.536018 -0.00624546
82538 34584 14623 0.798486 -0.601562 -0.0233063
82572 34571 14618 -0.343709 0.846377 0.40683
82574 34577 14618 0.328075 -0.937362 -0.117129
82584 34585 14618 0.273095 -0.886464 0.373631
82601 34587 14616 -0.0306566 0.878911 -0.476
82667 34546 14604 -0.340441 -0.89542 0.28692
82715 34522 14596 -0.379934 -0.911452 0.157817
82824 34446 14576 -0.493595 -0.860466 -0.126344
82820 34466 14578 -0.51167 -0.847799 -0.139391
82885 34420 14566 -0.408275 -0.885726 -0.22091
82909 34418 14563 -0.410503 -0.88282 -0.228291
82960 34393 14555 -0.516415 -0.831176 -0.206064
83067 34322 14535 -0.568999 -0.796724 -0.203645
83371 34091 14477 -0.182813 -0.959836 -0.212824
83408 34080 14471 -0.150268 0.976509 0.154434
83422 34078 14469 -0.150268 0.976509 0.154434
83440 34084 14468 0.142853 -0.960328 -0.239505
83457 34090 14466 0.324971 -0.877077 -0.353736
83471 34099 14465 -0.400699 0.894238 0.199447
83482 34110 14465 -0.47396 0.871645 0.124885
83506 34111 14462 0.312113 -0.70533 -0.636471
83511 34127 14463 -0.362075 0.58086 0.729043
83509 34138 14465 -0.558889 0.685324 0.466877
83528 34143 14463 0.529266 -0.514116 -0.674954
83539 34154 14462 0.669825 -0.516253 -0.533683
83549 34166 14462 0.573057 -0.590953 -0.567786
83566 34173 14461 -0.573059 0.689882 0.442342
83570 34189 14462 -0.602186 0.672025 0.430992
88640 39293 13673 0.550342 -0.833059 -0.0559985
88606 39314 13678 -0.522611 0.852328 0.0203734
88624 39349 13674 -0.522611 0.852328 0.0203734
85654 39464 14120 0.840009 0.508781 -0.188486
85634 39478 14122 0.855507 0.480146 -0.193824
85630 39498 14121 0.855507 0.480146 -0.193824
85594 39506 14126 -0.367574 -0.915534 0.163358
85612 39535 14122 0.36192 0.924478 -0.119807
85606 39543 14122 0.36192 0.924478 -0.119807
81195 33368 14497 0.995616 0.0606671 -0.0711875
81208 33353 14494 0.99693 0.0529192 -0.0577045
81201 33401 14501 0.986662 -0.0388954 -0.158068
81210 33414 14502 0.973772 -0.0848385 -0.211119
81207 33453 14508 0.884257 -0.254084 -0.391831
81212 33472 14511 0.775147 -0.261929 -0.574926
81219 33487 14512 0.715764 -0.5001 -0.487423
81232 33490 14512 -0.646707 0.539869 0.538806
81234 33500 14513 -0.646707 0.539869 0.538806
81245 33507 14514 -0.574329 0.638232 0.512646
81251 33523 14515 0.542036 -0.678403 -0.49595
81263 33526 14515 0.490584 -0.692459 -0.528988
81276 33529 14515 0.493211 -0.701321 -0.514676
81288 33533 14515 0.523108 -0.702185 -0.483006
81296 33545 14516 0.58897 -0.677014 -0.441323
81304 33543 14515 0.58897 -0.677014 -0.441323
81309 33560 14517 0.56839 -0.699295 -0.433497
81320 33568 14517 -0.466897 0.767953 0.438469
81325 33585 14520 -0.578336 0.28244 -0.765346
81308 33648 14530 0.726955 -0.258819 0.636042
81308 33676 14534 0.987118 -0.137598 -0.081636
81309 33687 14535 0.988739 -0.129766 -0.0745366
81316 33700 14537 0.542479 -0.691893 -0.476445
81325 33709 14537 0.166974 -0.822749 -0.543327
81336 33714 14537 0.179304 -0.809524 -0.559035
81341 33730 14539 0.179304 -0.809524 -0.559035
81351 33737 14539 -0.268444 -0.857414 -0.439066
81409 33654 14523 0.703032 0.536343 -0.466992
81466 33559 14506 0.446877 0.888385 -0.105231
81489 33542 14502 -0.472985 -0.873703 0.113704
81511 33529 14498 -0.484891 -0.872332 0.062583
81535 33510 14494 0.682096 0.731133 0.0137626
81596 33424 14477 0.75847 0.577858 0.301334
81603 33439 14479 0.755622 0.582633 0.29929
81739 33221 14438 0.790361 0.57467 0.21233
82388 33270 14390 0.835325 -0.520254 0.177674
82383 33302 14394 0.850759 -0.521094 0.0683352
82390 33317 14396 0.876425 -0.480088 -0.0373567
82410 33315 14393 0.718568 -0.688107 0.10084
82421 33326 14394 0.718568 -0.688107 0.10084
82424 33335 14395 -0.615394 0.787806 0.0255225
82528 33221 14370 0.0116856 -0.986788 -0.161593
82510 33370 14391 0.617093 -0.754589 -0.223138
82513 33378 14392 0.838806 -0.529015 -0.128636
82519 33394 14393 0.993532 0.111504 -0.0214676
82505 33436 14400 0.921394 0.104737 -0.37425
82486 33484 14408 0.992706 0.119137 0.0184949
82492 33499 14409 0.979382 0.0956872 0.177917
82509 33502 14408 0.979382 0.0956872 0.177917
82481 33548 14416 0.954097 0.0502277 0.295256
82475 33579 14420 0.973185 0.0608762 0.221824
82475 33602 14423 0.994532 0.00980623 0.103971
82419 33691 14440 -0.083884 0.976746 0.197307
82434 33696 14439 0.183756 -0.955832 -0.229389
82465 33680 14434 -0.247667 0.940059 0.234413
82479 33686 14433 -0.413951 0.903183 0.113599
82483 33692 14434 -0.413951 0.903183 0.113599
82503 33691 14431 -0.634991 0.761147 0.132068
