ply
format ascii 1.0
comment Created by Open3D
element vertex 1022
property float x
property float y
property float z
property float nx
property float ny
property float nz
end_header
123270 62209 24176 0.828664 -0.39155 0.400006
123283 62282 24176 0.828664 -0.39155 0.400006
123348 62415 24176 0.788756 -0.39213 0.473391
123419 62545 24176 0.785639 -0.362071 0.501674
123475 62681 24176 0.803253 -0.34497 0.485571
123535 62815 24176 0.845139 -0.346703 0.406862
123573 62957 24176 0.913265 -0.26165 0.312227
123643 63088 24176 0.913265 -0.26165 0.312227
123681 63153 24176 0.913265 -0.26165 0.312227
98885 75304 24091 -0.167793 0.985641 -0.0189278
98617 75396 24090 0.458111 0.875606 0.153127
122233 75344 24164 0.978403 0.0271762 0.204912
122272 75477 24165 0.978403 0.0271762 0.204912
148257 88026 23920 -0.163944 0.0666576 -0.984215
148144 88231 23920 -0.185703 0.0595674 -0.980799
119235 87566 23965 0.855466 0.454254 -0.248659
118961 87629 23965 0.879541 0.401606 -0.255187
69579 74505 24013 0.183431 -0.620828 0.762185
69623 74485 24013 -0.0946813 0.631213 -0.769809
69601 74445 24013 -0.0348711 -0.513705 0.857258
69571 74402 24013 0.98351 0.0602482 -0.170522
69581 74372 24013 0.984824 -0.0366129 -0.169651
69575 74336 24013 0.934636 0.113521 -0.337
69565 74316 24013 0.92265 0.0497518 -0.382417
69573 74285 24013 0.880403 0.0473437 -0.471857
69572 74251 24013 0.940617 -0.0364258 -0.337509
69576 74218 24013 0.957975 0.0548387 -0.28156
69579 74185 24013 0.957245 0.0456363 -0.285655
69584 74153 24013 0.963933 0.0320913 -0.264204
69587 74120 24013 0.94506 0.0995269 -0.311379
69580 74101 24013 0.935253 0.0558378 -0.349547
69587 74069 24013 0.924432 0.0261704 -0.380449
69589 74035 24013 0.935903 0.0360838 -0.350406
69588 74001 24013 0.965193 0.13738 -0.222549
69584 73965 24013 0.942512 0.231272 -0.241213
69595 73934 24013 0.843246 0.461249 -0.276017
69595 73900 24012 0.782708 0.485167 -0.389849
69591 73881 24012 0.92389 0.306998 -0.22843
69679 73880 24013 -0.168301 -0.25917 0.951055
69683 73847 24013 0.382509 0.699199 -0.603993
69710 73823 24013 0.694419 0.0118676 -0.719473
69643 73762 24012 -0.00262287 -0.322097 -0.946703
69621 73719 24012 0.456653 -0.31893 -0.830513
69970 73822 24013 0.252569 -0.965533 -0.0628895
69654 73679 24012 0.329487 -0.379296 -0.864623
69599 73622 24012 0.761203 -0.446248 -0.470566
69609 73591 24012 0.95359 -0.224401 -0.200772
69608 73556 24012 0.796026 0.0880114 -0.598829
69624 73527 24012 0.406715 0.121864 -0.905391
70461 73839 24014 -0.436006 0.898758 0.0461859
70478 73814 24014 -0.436006 0.898758 0.0461859
69602 73429 24012 0.66086 -0.104078 -0.743258
69610 73396 24012 0.861031 -0.0330297 -0.507479
69617 73363 24012 0.932607 0.168962 -0.318899
69624 73331 24012 0.855693 0.25733 -0.448966
69625 73295 24012 0.980009 0.198157 -0.0177549
69625 73259 24012 0.988012 0.153018 0.0204275
69610 73234 24012 0.997692 -0.00542461 0.0676871
69616 73200 24012 0.9307 0.0241908 0.364982
69622 73167 24012 0.89646 0.109604 0.429355
69624 73132 24012 0.902314 0.0476117 0.428443
69616 73091 24012 0.959609 0.066106 0.273461
69630 73061 24012 0.942058 -0.133731 0.307639
69630 73024 24012 0.92067 -0.0458607 0.387639
69622 73002 24012 0.89072 -0.0444998 0.452368
69618 72963 24012 0.935977 0.0290895 0.350857
69632 72933 24012 0.84093 0.0981087 0.532177
69630 72895 24012 0.893307 0.0494998 0.446713
69639 72862 24012 0.936374 -0.191488 0.29417
69634 72822 24012 0.947668 0.0209969 0.318565
69642 72789 24012 0.929458 -0.150637 0.336773
69631 72765 24012 0.917559 0.0654103 0.392182
69637 72730 24012 0.948113 -0.00303576 0.317919
69629 72688 24012 0.990195 0.0721206 0.119635
69642 72657 24012 0.931023 0.0037016 0.364941
69639 72618 24012 0.952043 0.126911 0.278402
69646 72583 24012 0.948653 0.0135519 0.316027
69643 72544 24012 0.927928 -0.00727743 0.372688
69647 72527 24012 0.9084 0.123012 0.399596
69649 72489 24012 0.899292 0.139728 0.414428
69645 72449 24012 0.920878 0.0995095 0.376937
69652 72414 24012 0.928023 0.0285995 0.371424
69654 72376 24012 0.950286 -0.0231949 0.310513
69654 72338 24012 0.927581 -0.10108 0.359688
69660 72302 24012 0.934466 -0.010059 0.35591
69648 72276 24012 0.954409 0.040062 0.2958
69651 72238 24012 0.929261 0.117391 0.350277
69653 72200 24011 0.959614 0.0395457 0.278528
69666 72168 24011 0.940492 0.0709231 0.332331
69657 72123 24011 0.961305 -0.00211324 0.275478
69663 72087 24011 0.966327 -0.00311998 0.257297
69675 72054 24011 0.971761 0.111212 0.208118
69670 72031 24011 0.976883 -0.07291 0.200955
69661 71986 24011 0.954003 0.0532913 0.295021
69678 71956 24011 0.948963 -0.00247109 0.315379
69666 71909 24011 0.980253 0.00927884 0.197532
69677 71875 24011 0.975286 0.175673 0.133999
69670 71830 24011 0.973196 0.00120791 0.229976
69679 71795 24011 0.963864 0.0485569 0.261934
69675 71772 24011 0.981234 -0.00563101 0.192736
69670 71728 24011 0.993156 -0.00336007 0.116751
69683 71695 24011 0.968471 0.0732765 0.238106
69684 71655 24011 0.969985 0.0995172 0.22187
69682 71612 24011 0.965783 0.0436648 0.255649
69694 71578 24011 0.99981 0.0173612 0.00888969
69678 71547 24011 0.990068 -0.0763343 0.11806
69666 71498 24011 0.982752 0.128594 0.132896
69681 71465 24011 0.993343 0.114964 0.0073241
69697 71433 24011 0.923426 0.136758 0.358583
69762 71390 24011 0.92467 -0.170179 -0.340624
69731 71328 24011 0.949788 0.218223 -0.224234
69692 71281 24011 0.994645 -0.0686932 -0.0772237
69698 71243 24011 0.998628 -0.0262721 0.0453024
70013 71407 24011 -0.512521 0.854257 -0.0869881
69872 71272 24011 0.381097 -0.0604447 -0.922557
69710 71122 24011 0.990703 0.128558 -0.0445031
69710 71078 24011 0.756231 -0.588354 0.286277
69707 71033 24011 0.969054 -0.246729 0.00764151
69698 71004 24011 0.992821 0.0906579 0.0780248
69701 70963 24011 0.996675 0.0414884 0.0701285
69710 70925 24011 0.894913 0.445922 -0.0168398
70565 71433 24012 -0.377008 0.925479 0.0367803
70579 71402 24012 0.598025 -0.800983 0.0281648
69647 70679 24010 0.858192 -0.462372 -0.222979
69599 70599 24010 0.719791 -0.693975 -0.0173264
123310 61890 23956 0.83609 -0.484337 0.257627
123359 62028 23956 0.83609 -0.484337 0.257627
123432 62158 23956 0.850295 -0.414233 0.324669
123487 62294 23956 0.834514 -0.464505 0.296346
123528 62358 23956 0.874882 -0.385995 0.292558
123585 62494 23956 0.873971 -0.384288 0.297485
123649 62628 23956 0.879739 -0.361901 0.308362
123697 62766 23956 0.878133 -0.359308 0.31588
123764 62899 23956 0.931638 -0.254708 0.259179
123840 63029 23956 0.931638 -0.254708 0.259179
123771 63206 23956 0.929624 -0.267819 0.253123
98848 75342 23998 0.0496951 0.99817 0.0344405
98656 75425 23998 0.0942869 0.995326 0.0208601
122433 75470 23962 0.97974 -0.0979242 0.174701
122587 75599 23961 0.991946 -0.000618051 0.126662
146593 78859 23497 0.979063 0.0175054 -0.202804
146416 79067 23498 0.979063 0.0175054 -0.202804
146428 79172 23498 0.979063 0.0175054 -0.202804
146442 79384 23498 0.979063 0.0175054 -0.202804
146426 79595 23498 0.979063 0.0175054 -0.202804
146393 79805 23498 0.979063 0.0175054 -0.202804
146549 80022 23497 0.979063 0.0175054 -0.202804
146596 80235 23497 0.979063 0.0175054 -0.202804
148200 87958 23478 -0.167797 0.061988 -0.983871
148090 88163 23479 -0.185703 0.0595674 -0.980799
118909 87338 23706 0.855466 0.454254 -0.248659
119087 87515 23704 0.855466 0.454254 -0.248659
118997 87625 23705 0.879541 0.401606 -0.255187
99457 86959 23852 0.741969 -0.66691 -0.0686522
99458 87036 23852 0.741969 -0.66691 -0.0686522
99469 87120 23851 0.741969 -0.66691 -0.0686522
99439 87183 23851 0.741969 -0.66691 -0.0686522
69743 73866 23948 0.279597 -0.723787 0.630839
69783 73846 23948 0.865938 -0.237431 0.440202
70636 73903 23954 -0.472416 0.876998 0.0877317
70516 73822 23953 -0.444397 0.893312 0.0671186
69678 73244 23945 -0.110645 0.256143 -0.960286
69754 73241 23946 0.468727 0.43068 -0.771239
69727 73211 23946 -0.114996 -0.616665 0.778781
69726 73175 23946 0.3883 0.407677 -0.826452
69716 73134 23945 -0.255185 0.0766425 -0.96385
69730 73104 23945 0.731443 -0.0690173 -0.6784
69720 73064 23945 -0.23384 -0.0487199 -0.971054
69734 73034 23945 0.814582 0.0461812 -0.578206
69737 72999 23945 0.836934 0.299905 -0.457819
69737 72980 23945 0.0149674 -0.263978 -0.964413
69735 72943 23945 0.767155 0.0420117 -0.640085
69743 72910 23945 0.969487 0.0354991 -0.242557
69742 72873 23945 0.998821 0.0415887 -0.0250378
69727 72829 23944 0.400513 0.0622621 0.914173
69755 72805 23944 0.970239 0.100322 -0.220389
69749 72765 23944 0.549541 0.384401 -0.741782
69757 72750 23944 0.90198 0.264331 -0.341411
69745 72707 23944 0.136786 0.285789 0.94848
69767 72681 23944 0.950924 -0.0335438 -0.307601
69754 72637 23944 0.984077 -0.116029 -0.134646
69746 72595 23944 -0.645934 0.329333 -0.688701
69743 72556 23944 0.702976 -0.34817 0.620164
69755 72524 23943 0.311435 0.306886 -0.899349
69747 72501 23943 0.326007 -0.198726 -0.924244
69748 72464 23943 0.62974 -0.108736 -0.769158
69752 72427 23943 0.643895 -0.0931008 -0.759429
69738 72382 23943 -0.0310346 0.0690259 -0.997132
69736 72342 23943 0.0907673 0.111864 -0.989569
69744 72308 23943 0.0181809 0.144604 -0.989323
69749 72272 23942 0.641041 -0.0557796 -0.765477
69729 72242 23942 -0.578244 0.0154647 -0.815717
69730 72203 23942 -0.525699 0.012481 -0.850579
69731 72164 23942 -0.43175 0.132926 -0.892145
69721 72120 23942 0.501108 0.0346351 -0.864691
69730 72085 23942 0.98739 -0.0418253 0.152682
69736 72049 23942 0.735428 0.0547405 -0.675388
69720 72020 23941 0.792088 -0.0436533 0.608844
69729 71985 23941 0.797725 0.0311962 0.602214
69727 71945 23941 0.790759 -0.0262501 0.611564
69722 71902 23941 0.803104 0.0135369 0.595685
69733 71868 23941 0.85735 0.0360422 -0.513471
69742 71833 23941 -0.669944 0.0920575 0.736682
69739 71790 23941 0.900702 0.0401691 -0.432576
69724 71761 23940 0.846058 0.036557 0.531836
69726 71722 23940 0.835283 -0.0140729 0.54964
69732 71685 23940 0.827712 0.0556303 0.55839
69739 71648 23940 0.859197 0.032714 0.510598
69743 71609 23940 0.709361 -0.0716232 -0.701197
69743 71568 23940 0.35823 -0.00326332 -0.933628
69741 71525 23939 -0.347027 -0.276888 -0.89605
69742 71505 23939 -0.347027 -0.276888 -0.89605
69832 71478 23940 -0.464407 -0.860675 -0.208722
69859 71454 23940 -0.231074 -0.924942 -0.301807
69932 71459 23940 0.457943 0.856 0.239902
69750 71300 23939 0.583496 0.400172 -0.706679
69752 71259 23938 -0.516213 0.0996164 0.850647
69737 71228 23938 0.750851 -0.102267 -0.652506
70134 71446 23942 -0.0450966 0.998322 -0.0363149
69930 71269 23940 0.24548 -0.348943 -0.904422
69760 71114 23938 0.821771 0.045739 -0.567979
69758 71070 23938 0.830128 0.0244872 -0.557034
69755 71024 23937 0.799698 0.00144858 -0.600401
69760 70984 23937 0.774244 0.113417 -0.622641
69761 70962 23937 0.834547 0.200792 -0.513043
69768 70924 23937 0.868513 0.3717 -0.32791
70690 71517 23946 -0.54046 0.841367 0.00221927
70625 71432 23945 0.347037 -0.935507 -0.0662716
69779 70799 23937 0.0122218 -0.56543 -0.824706
69808 70775 23937 0.642575 -0.348404 -0.68243
69857 70765 23937 0.623678 -0.562502 -0.542787
123173 61915 23661 0.820569 -0.531485 0.210216
123350 62008 23660 0.834316 -0.512701 0.202619
123408 62143 23660 0.870655 -0.472403 0.137093
123452 62283 23660 0.89102 -0.449954 0.0601991
123501 62344 23659 0.878614 -0.470675 0.0806407
123574 62474 23659 0.901752 -0.420988 0.0980422
123616 62615 23659 0.897058 -0.429366 0.104552
123687 62746 23659 0.942574 -0.330094 0.0509223
123744 62882 23659 0.940281 -0.266551 0.211712
123816 63013 23659 0.936386 -0.273899 0.219456
123690 63209 23660 0.941897 -0.239302 0.235723
98935 75354 23872 0.094675 0.99485 0.0362079
141616 74054 23536 0.704185 -0.709423 -0.0290114
122303 75459 23688 0.988327 0.0584969 0.14067
122531 75585 23686 0.98964 0.0658407 0.127581
146451 78810 23086 0.979063 0.0175054 -0.202804
146439 79021 23086 0.979063 0.0175054 -0.202804
146422 79232 23086 0.979063 0.0175054 -0.202804
146429 79337 23086 0.979063 0.0175054 -0.202804
146415 79548 23086 0.979063 0.0175054 -0.202804
146408 79759 23086 0.979063 0.0175054 -0.202804
146266 79965 23088 0.979063 0.0175054 -0.202804
146404 80181 23086 0.979063 0.0175054 -0.202804
148244 87918 23050 -0.130279 0.0612768 -0.989582
148098 88118 23051 -0.163944 0.0666576 -0.984215
141042 91654 23139 -0.176116 0.0780726 -0.981269
118873 87345 23455 0.937571 0.313258 -0.151094
119069 87460 23452 0.855466 0.454254 -0.248659
118733 87508 23457 0.937571 0.313258 -0.151094
118789 87654 23455 0.937571 0.313258 -0.151094
99418 86962 23715 0.741969 -0.66691 -0.0686522
99388 87026 23715 0.741969 -0.66691 -0.0686522
99613 87211 23711 0.761692 -0.63998 -0.101248
69752 73855 23885 -0.339043 0.94077 0.00123407
69819 73847 23886 0.161227 0.986861 -0.0105227
70196 73861 23891 -0.126291 -0.991238 -0.0387094
70543 73857 23895 -0.48491 0.870064 0.0886067
69894 71495 23872 -0.234297 -0.940501 0.246095
69734 71351 23869 0.954545 -0.147731 0.258879
70443 71590 23879 0.0860495 0.96889 0.232051
70628 71496 23880 -0.346117 0.922239 0.172271
70478 71350 23877 -0.027592 0.999615 0.00283178
70672 71446 23880 -0.403423 0.915002 -0.00464779
123273 61828 23373 0.831792 -0.527817 0.171845
123916 63240 23371 0.944965 -0.287439 0.156272
98921 75367 23750 0.0907058 0.995704 0.0185756
141602 74204 23153 0.704185 -0.709423 -0.0290114
122486 75539 23421 0.885487 0.441541 0.144753
121007 84437 23140 0.361095 0.131343 -0.923233
120814 84472 23144 0.361095 0.131343 -0.923233
120912 84623 23141 0.361095 0.131343 -0.923233
120870 84750 23141 0.361095 0.131343 -0.923233
120948 85508 23137 0.726793 -0.0656153 -0.683716
121252 85704 23130 0.726793 -0.0656153 -0.683716
120993 85789 23135 0.726793 -0.0656153 -0.683716
119006 87229 23169 0.93753 0.313057 -0.151762
118893 87333 23171 0.93753 0.313057 -0.151762
118878 87396 23171 0.93753 0.313057 -0.151762
119002 87559 23167 0.93753 0.313057 -0.151762
118902 87667 23169 0.93753 0.313057 -0.151762
99506 86981 23558 0.741969 -0.66691 -0.0686522
99463 87000 23559 0.741969 -0.66691 -0.0686522
99685 87183 23553 0.761692 -0.63998 -0.101248
99535 87190 23556 0.761692 -0.63998 -0.101248
77286 119074 23154 0.0662054 0.0205494 -0.997594
77221 119063 23154 0.0662054 0.0205494 -0.997594
41748 88098 23209 0.902517 -0.42744 0.0525202
41762 87967 23211 0.902517 -0.42744 0.0525202
22074 88741 22805 0.559438 0.126116 -0.819222
22052 88559 22805 0.559438 0.126116 -0.819222
22668 77369 22840 -0.472931 -0.136289 -0.870495
22630 77280 22840 -0.472931 -0.136289 -0.870495
69863 73877 23816 0.00915163 0.999957 -0.00144697
70218 73864 23823 -0.0212327 0.997932 -0.0606673
70543 73882 23829 -0.391246 0.919956 0.0246472
70520 73840 23829 -0.306778 0.95103 0.0377939
69874 71484 23794 -0.261055 0.935891 -0.236554
69994 71519 23796 -0.0562957 0.998316 -0.0139731
70383 71509 23803 0.194524 -0.976789 0.0896907
70803 71575 23811 0.413523 -0.910138 -0.0254414
70669 71442 23807 0.436364 -0.877132 -0.200564
123336 61779 23046 0.871916 -0.480446 0.0945262
123982 63192 23043 0.930734 -0.349078 0.108989
98804 75337 23615 0.119919 0.992234 0.0330222
99145 75362 23608 0.0345555 0.996583 0.0750203
141677 74148 22717 0.704185 -0.709423 -0.0290114
122431 75521 23121 0.885487 0.441541 0.144753
122283 75663 23124 0.98964 0.0658407 0.127581
123948 84299 22848 -0.0612322 0.147045 -0.987233
120664 84797 22930 0.66516 0.212608 -0.715793
120672 84933 22930 0.726793 -0.0656153 -0.683716
120645 85062 22930 0.726793 -0.0656153 -0.683716
120833 85232 22924 0.726793 -0.0656153 -0.683716
120695 85341 22927 0.726793 -0.0656153 -0.683716
120564 85383 22930 0.726793 -0.0656153 -0.683716
118944 87294 22961 0.93753 0.313057 -0.151762
118868 87407 22962 0.93753 0.313057 -0.151762
118791 87520 22963 0.93753 0.313057 -0.151762
99416 86960 23446 0.734359 -0.674616 -0.0748973
99305 86984 23448 -0.533855 0.844659 0.0393654
99290 87016 23448 -0.6296 0.774916 0.055747
99530 87287 23440 0.765638 -0.643171 -0.0113427
80548 87407 23766 0.992997 0.0467855 0.108483
53525 126163 22590 0.0259253 -0.0102917 -0.999611
61521 87443 23496 0.349319 0.92684 -0.137634
61315 87411 23492 0.349319 0.92684 -0.137634
40824 86289 22998 0.841616 0.0571573 0.537043
40859 86154 23000 0.799822 0.0596465 0.597266
40853 86029 23000 0.808768 0.0180667 0.587851
40825 85909 23000 0.823633 0.00156773 0.56712
40839 85779 23002 0.830655 -0.0964417 0.548372
40869 85709 23003 0.82864 -0.0868727 0.553
40822 85593 23002 0.82864 -0.0868727 0.553
40907 85450 23005 0.84768 -0.227927 0.479049
22001 88807 22504 0.559438 0.126116 -0.819222
21819 88655 22501 0.559438 0.126116 -0.819222
21878 88550 22503 0.559438 0.126116 -0.819222
69634 73828 23758 -0.14316 0.989699 0.00137093
70165 73833 23771 -0.0323325 0.996786 -0.0732899
70441 73863 23778 0.0118861 0.999557 0.0272698
70458 73838 23778 -0.0430558 0.999048 -0.00706447
69739 71418 23732 0.675774 -0.735401 0.0501494
69826 71431 23735 -0.422097 0.906079 -0.0292247
70367 71520 23748 -0.268726 0.938324 -0.217565
70267 71411 23744 0.070063 0.996412 0.0474717
70538 71454 23750 -0.0931233 0.969207 0.22796
70696 71524 23755 -0.183478 0.983018 -0.00341386
123979 63140 22802 0.930734 -0.349078 0.108989
99010 75356 23509 0.0709606 -0.993809 -0.0854839
98806 75409 23514 -0.0951891 -0.995282 -0.0187665
141597 74102 22399 0.704185 -0.709423 -0.0290114
114687 75657 23102 0.0257063 0.99947 -0.0199693
116214 75697 23062 0.0183607 0.998819 0.0449744
123818 84262 22584 -0.0649382 0.116049 -0.991118
123729 84391 22586 -0.0612322 0.147045 -0.987233
121431 84171 22660 0.361095 0.131343 -0.923233
120732 84797 22679 0.66516 0.212608 -0.715793
120742 84933 22678 0.66516 0.212608 -0.715793
120727 85065 22677 0.726793 -0.0656153 -0.683716
118885 87269 22720 0.93753 0.313057 -0.151762
99284 86918 23318 -0.056043 0.997645 -0.0395528
98986 86929 23326 -0.056043 0.997645 -0.0395528
80541 87047 23717 0.980691 0.0942094 0.171375
80523 87138 23714 0.964894 -0.0237439 0.261566
80510 87156 23714 0.964894 -0.0237439 0.261566
53598 126094 22267 0.0259253 -0.0102917 -0.999611
61331 87563 23368 0.349319 0.92684 -0.137634
61571 87354 23378 0.349319 0.92684 -0.137634
61634 87211 23382 0.101441 0.958947 -0.264823
29185 104983 22198 0.795774 -0.359679 0.487211
29281 104726 22204 0.795774 -0.359679 0.487211
29487 104411 22215 0.795774 -0.359679 0.487211
29484 104211 22218 0.795774 -0.359679 0.487211
29333 104090 22215 0.795774 -0.359679 0.487211
41785 88148 22779 0.99273 0.119028 -0.0178672
41831 88008 22782 0.902517 -0.42744 0.0525202
41886 87866 22785 0.902517 -0.42744 0.0525202
41001 85312 22776 0.800586 -0.45215 0.39322
21595 87425 22153 0.559438 0.126116 -0.819222
21564 87244 22153 0.559438 0.126116 -0.819222
21600 86866 22156 0.559438 0.126116 -0.819222
21613 86678 22158 0.559438 0.126116 -0.819222
21631 86489 22159 0.559438 0.126116 -0.819222
21412 86338 22153 0.559438 0.126116 -0.819222
21550 86224 22158 0.559438 0.126116 -0.819222
21639 86025 22162 0.559438 0.126116 -0.819222
23803 78151 22251 -0.472931 -0.136289 -0.870495
23859 77976 22253 -0.472931 -0.136289 -0.870495
23902 77888 22254 -0.472931 -0.136289 -0.870495
23901 77714 22254 -0.472931 -0.136289 -0.870495
23911 77541 22255 -0.472931 -0.136289 -0.870495
23915 77367 22255 -0.472931 -0.136289 -0.870495
23871 77193 22253 -0.472931 -0.136289 -0.870495
23819 77018 22252 -0.472931 -0.136289 -0.870495
23728 76843 22249 -0.472931 -0.136289 -0.870495
69753 73886 23701 0.234379 -0.971444 -0.0369296
69735 73844 23700 -0.245351 0.969268 0.0179571
70271 73868 23716 0.0263826 -0.99804 0.0567512
70508 73883 23723 -0.0667817 0.997156 0.0349385
70525 73857 23724 -0.100318 0.993038 0.0617339
69794 71433 23667 -0.515931 0.856515 0.0140481
69987 71535 23674 -0.396283 0.917006 0.0453827
70517 71577 23689 -0.0242743 -0.955104 0.295273
70429 71478 23685 -0.239807 0.8591 -0.452151
70611 71481 23689 0.124545 0.992187 -0.00730099
70426 71333 23682 -0.0459603 0.990733 0.127812
123939 63132 22525 0.914429 -0.395828 0.0844933
98754 75344 23399 0.084137 -0.988653 -0.124447
98981 75381 23392 0.084137 -0.988653 -0.124447
122550 75587 22640 0.98964 0.0658407 0.127581
99429 86937 23167 0.881121 -0.465192 -0.0849887
99513 87249 23159 0.790211 -0.597816 -0.134842
88503 84748 23573 0.0810386 0.966423 -0.243843
88441 84746 23575 0.0554133 0.991077 0.121228
88370 84736 23577 -0.0075807 0.989299 -0.145708
88311 84735 23579 -0.00521708 0.986356 -0.164546
88249 84732 23581 -0.0179549 0.976825 -0.213287
88203 84741 23582 0.0327324 0.996684 -0.074498
88172 84739 23583 0.029564 0.968772 -0.246183
88103 84729 23585 0.0144325 0.775121 -0.631648
88049 84731 23587 0.0366479 0.703187 -0.71006
88002 84738 23588 0.0598248 0.565544 -0.822546
87947 84738 23590 0.0880512 0.569057 -0.81757
87921 84763 23590 0.114962 0.557765 -0.821999
87870 84767 23591 0.139867 0.539623 -0.830208
87822 84749 23593 -0.129306 -0.524875 0.8413
87806 84781 23593 0.14138 0.468135 -0.872273
87772 84799 23593 0.156213 0.458784 -0.874708
87741 84819 23594 0.128549 0.402908 -0.906168
87693 84823 23595 0.133688 0.338969 -0.93125
87671 84851 23595 0.175033 0.302152 -0.937053
87654 84883 23594 0.190366 0.260721 -0.946459
87626 84881 23595 0.162434 0.245091 -0.955796
87608 84913 23595 0.150555 0.155032 -0.97637
87589 84943 23595 0.742033 0.62196 0.250106
87572 84975 23594 0.816795 0.535293 0.21519
87547 84999 23595 0.844621 0.478144 0.240817
87530 85032 23594 0.859451 0.434359 0.269586
87511 85062 23594 -0.0280744 -0.0252038 -0.999288
87512 85087 23593 -0.0297985 -0.0255611 -0.999229
87491 85116 23593 0.18961 0.0575366 -0.980172
87486 85159 23592 0.196749 0.0467215 -0.97934
87481 85203 23591 0.208819 0.0400538 -0.977134
87461 85233 23591 0.221988 0.0326324 -0.974503
87455 85277 23590 -0.234237 -0.0241873 0.971879
87467 85313 23589 0.236304 0.0211871 -0.971448
87443 85339 23589 0.246664 0.0151913 -0.968982
87437 85382 23588 -0.250162 0.00908694 0.968161
87432 85428 23586 -0.252993 0.0333493 0.966893
87432 85479 23585 -0.26304 0.0421042 0.963866
87435 85532 23584 -0.268197 0.0518561 0.961968
87461 85609 23581 0.271205 0.300057 0.914556
87491 85664 23578 -0.422022 -0.47464 -0.772408
87473 85698 23578 -0.335811 -0.59093 -0.733508
80560 87043 23654 0.943853 0.327697 0.0419176
80549 87194 23648 0.976508 -0.0117235 0.21516
80525 87135 23650 0.980691 0.0942094 0.171375
61626 87375 23246 -0.037952 0.962939 -0.267036
61604 87315 23247 -0.037952 0.962939 -0.267036
61605 87242 23248 -0.037952 0.962939 -0.267036
61365 87338 23238 0.349319 0.92684 -0.137634
29588 104596 21844 0.795774 -0.359679 0.487211
29589 104394 21848 0.795774 -0.359679 0.487211
29477 104253 21847 0.795774 -0.359679 0.487211
29358 104115 21845 0.795774 -0.359679 0.487211
41786 88062 22525 0.99273 0.119028 -0.0178672
41812 87927 22527 0.99273 0.119028 -0.0178672
41818 87799 22529 0.99273 0.119028 -0.0178672
41093 86592 22513 0.898422 0.199778 0.39106
41127 86457 22516 0.942635 0.188354 0.275611
41287 86294 22523 0.962084 0.0935961 0.256193
41188 86254 22520 0.96803 0.161642 0.191805
41196 86126 22521 0.985115 0.0799045 0.152198
41184 86003 22522 0.988067 0.0107925 0.153649
41185 85877 22523 0.985809 -0.056448 0.158094
41182 85753 22524 0.957796 -0.0939422 0.271665
41166 85631 22524 0.949817 -0.0828032 0.301648
41140 85449 22524 0.837737 -0.420072 0.348907
41140 85324 22525 0.765202 -0.532612 0.36165
40848 85258 22515 0.740815 -0.59077 0.319662
21670 86331 21780 0.559438 0.126116 -0.819222
21629 86152 21779 0.559438 0.126116 -0.819222
53903 78330 23048 -0.187064 0.523041 0.831526
53990 78248 23051 -0.194013 0.385313 0.90216
54042 78167 23053 0.662736 0.110313 -0.740684
54066 78087 23054 0.662736 0.110313 -0.740684
54065 78047 23054 0.733944 0.0859726 -0.673747
54067 77968 23054 0.706843 0.0591799 -0.704891
54070 77889 23055 0.706843 0.0591799 -0.704891
54078 77810 23055 0.706843 0.0591799 -0.704891
54061 77731 23054 0.706843 0.0591799 -0.704891
54063 77652 23054 -0.420998 -0.172951 0.89042
54070 77612 23055 0.290905 0.215598 -0.932144
54050 77533 23054 0.293662 0.24569 -0.923796
54030 77454 23053 0.288235 0.269404 -0.918881
24197 76882 21903 -0.472931 -0.136289 -0.870495
24070 76707 21898 -0.472931 -0.136289 -0.870495
69756 73870 23634 -0.245885 0.969049 0.0220057
69754 73836 23633 -0.245885 0.969049 0.0220057
70297 73865 23653 -0.0695941 0.994603 -0.0769564
70321 73843 23654 0.0480339 -0.998551 0.0242746
70438 73842 23658 0.0830193 -0.996209 -0.025985
69849 71483 23596 0.467875 -0.883137 -0.0340905
69714 71375 23589 -0.51419 0.857088 0.031754
70407 71481 23614 -0.299087 0.92118 -0.248946
70525 71521 23618 -0.00109489 0.986835 -0.161727
70594 71448 23619 0.0493482 -0.984742 0.166878
70638 71459 23621 -0.0266271 -0.998225 0.0532726
123400 61877 22222 0.899078 -0.431075 0.0763744
98800 75355 23269 0.107686 -0.981153 -0.160446
99001 75396 23261 0.107686 -0.981153 -0.160446
99346 86894 23039 0.944483 -0.328555 -0.00189972
99331 86964 23038 0.944483 -0.328555 -0.00189972
99309 87031 23038 0.944483 -0.328555 -0.00189972
88751 84710 23495 0.111756 0.888539 -0.444981
88649 84679 23499 0.317927 0.909447 -0.268008
88601 84689 23501 0.355668 0.900201 -0.251275
88537 84687 23503 0.3461 0.925659 -0.152876
88488 84695 23505 0.232414 0.965805 -0.114909
88413 84683 23507 -0.0957563 0.968965 -0.227896
88378 84679 23509 -0.0751655 0.941705 -0.327936
88316 84676 23511 -0.049259 0.95013 -0.30794
87865 84701 23526 -0.0763914 -0.682512 0.726871
87810 84701 23528 0.0606767 0.669252 -0.740554
87746 84693 23530 -0.0138459 -0.612059 0.790691
87727 84723 23530 -0.0471877 -0.516948 0.854715
87668 84696 23533 -0.012863 -0.577796 0.81608
87617 84697 23534 0.0134183 -0.451356 0.892243
87568 84701 23536 -0.0142232 0.402883 -0.915141
87532 84715 23537 0.0107233 0.322275 -0.946585
87464 84702 23539 0.0776533 0.263029 -0.961658
87438 84725 23540 0.079685 0.231415 -0.969586
87392 84707 23542 -0.115405 -0.214717 0.969834
87379 84741 23541 -0.115405 -0.214717 0.969834
87336 84749 23542 -0.139692 -0.198974 0.969998
87315 84775 23542 0.178955 0.181423 -0.966985
87316 84822 23541 0.201331 0.170986 -0.964484
87304 84858 23540 0.194438 0.145495 -0.970065
87263 84867 23541 0.202678 0.0993894 -0.974188
87253 84881 23541 0.170957 0.0715475 -0.982677
87240 84916 23540 -0.0286297 -0.0281738 -0.999193
87239 84961 23539 -0.0323864 -0.0295988 -0.999037
87238 85008 23538 0.197275 0.0230428 -0.980077
87232 85050 23537 0.209542 0.0123941 -0.977721
87236 85101 23535 0.214876 -0.000984293 -0.976641
87225 85115 23535 0.222504 0.000932651 -0.974931
87218 85156 23534 -0.381476 0.0859293 0.920376
87219 85205 23532 -0.399215 0.0687614 0.914275
87220 85255 23531 -0.416571 0.0539318 0.907502
87208 85292 23530 -0.397672 0.0501261 0.916157
87225 85358 23527 -0.266564 0.0331655 0.963247
87235 85442 23524 -0.292391 0.0698948 0.953741
87226 85484 23523 -0.310727 0.0761114 0.947447
87245 85603 23519 0.370333 -0.159007 -0.915189
87244 85654 23517 0.370333 -0.159007 -0.915189
87270 85732 23514 0.378829 -0.171331 -0.909469
113479 123016 21492 -0.202855 -0.0915437 -0.97492
80565 87069 23595 0.943853 0.327697 0.0419176
80562 87269 23586 0.992997 0.0467855 0.108483
61657 87429 23126 0.875135 -0.301144 0.378748
61628 87373 23126 0.875135 -0.301144 0.378748
61602 87314 23126 0.0751615 0.996498 -0.0366412
61690 87193 23132 0.755989 -0.506352 0.414834
61481 87272 23122 0.0751615 0.996498 -0.0366412
41805 88102 22294 0.99273 0.119028 -0.0178672
41814 87973 22296 0.99273 0.119028 -0.0178672
41842 87838 22298 0.99273 0.119028 -0.0178672
41070 86644 22278 0.942635 0.188354 0.275611
41146 86499 22283 0.942635 0.188354 0.275611
41147 86372 22285 0.942635 0.188354 0.275611
41164 86242 22287 0.957834 0.0815441 0.275508
41185 86174 22288 0.953309 0.112517 0.280253
41189 86048 22290 0.958986 0.0416218 0.280381
41200 85920 22291 0.934206 -0.00740449 0.356657
41195 85795 22292 0.930332 -0.0504943 0.363226
41182 85673 22293 0.929479 -0.0917524 0.357282
41171 85550 22294 0.937131 -0.191087 0.292013
41153 85429 22294 0.799398 -0.426167 0.423492
41133 85371 22294 0.681022 -0.608277 0.407686
40787 85316 22279 -0.491963 0.859709 -0.137381
40951 85158 22288 0.711022 -0.631085 0.310129
53597 78271 22883 0.429798 0.0572585 -0.901108
53698 78187 22888 0.427293 0.0104842 -0.904052
53454 78113 22877 0.394965 0.0959542 -0.913671
53427 78073 22876 0.394965 0.0959542 -0.913671
53595 77263 22884 -0.334453 -0.277526 0.900622
69745 73872 23573 -0.264173 0.964469 -0.0034672
69738 73835 23572 -0.264173 0.964469 -0.0034672
70331 73849 23597 -0.100347 0.994577 0.0273226
70324 73781 23595 -0.0881888 0.996098 0.00327756
70484 73830 23603 0.134419 -0.98955 -0.0521839
69806 71469 23527 -0.459003 0.888227 0.0192293
69719 71372 23522 -0.593546 0.803335 -0.0485303
69888 71437 23530 -0.448033 0.893978 0.00838123
70423 71461 23550 0.493141 -0.869396 0.0310197
70450 71439 23551 0.252914 -0.961719 -0.105501
70553 71428 23554 0.0209624 -0.999677 0.0143959
70706 71494 23561 0.382709 -0.923585 0.0229226
126415 64961 21856 -0.650912 0.753161 -0.0951993
99086 75327 23139 0.130806 -0.981433 -0.140282
98820 75418 23151 0.130806 -0.981433 -0.140282
99302 86887 22914 0.728389 0.677375 0.10302
99291 86959 22913 0.898575 0.432068 0.0766889
99288 87035 22911 0.898575 0.432068 0.0766889
99335 87135 22907 0.962844 -0.258375 -0.0785734
88900 84636 23423 -0.17086 0.820906 -0.544903
88844 84641 23425 -0.191053 0.813088 -0.549897
88752 84619 23429 0.123565 0.886013 -0.446892
88697 84623 23431 0.127391 0.886105 -0.445634
88636 84600 23434 -0.111122 -0.743524 0.659412
88584 84607 23436 0.32945 0.701689 -0.63174
88546 84718 23434 -0.600012 -0.799506 0.0278603
88492 84722 23436 0.304514 0.930916 0.201658
88453 84738 23437 -0.0801274 -0.994841 -0.062224
88445 84755 23437 -0.223331 -0.969703 -0.098988
88645 84963 23423 0.710398 -0.0572051 -0.701471
88626 84996 23422 -0.691643 0.0378161 0.721249
88608 85031 23422 -0.691643 0.0378161 0.721249
88594 85067 23421 -0.691643 0.0378161 0.721249
87781 84606 23468 -0.0248984 -0.798034 0.602097
87737 84614 23469 -0.024268 -0.80411 0.593986
88693 85526 23403 0.640455 -0.0105719 -0.767923
88698 85556 23402 0.640455 -0.0105719 -0.767923
88705 85613 23399 0.640455 -0.0105719 -0.767923
88682 85645 23399 0.678785 -0.093777 -0.728325
88662 85680 23399 0.678785 -0.093777 -0.728325
87336 84630 23484 0.210213 0.353723 -0.911422
87266 84612 23487 0.277447 0.271029 -0.921719
87231 84627 23488 0.327184 0.245332 -0.912558
87193 84637 23489 0.336478 0.258086 -0.905635
87161 85696 23453 0.389057 -0.178753 -0.903705
87150 85762 23451 0.39236 -0.202525 -0.897239
113288 123250 21162 -0.202855 -0.0915437 -0.97492
80615 87030 23541 -0.600539 -0.776519 0.190711
80582 87016 23542 -0.600539 -0.776519 0.190711
80552 87015 23542 -0.600539 -0.776519 0.190711
80531 87092 23538 0.915758 0.395411 -0.070977
61771 87357 23017 0.956624 0.0571548 0.285665
61785 87277 23019 0.944142 0.0855505 0.318241
61786 87204 23021 0.664763 0.746984 -0.0102593
62007 87010 23035 0.710843 0.70261 -0.0322866
61510 87212 23009 -0.272324 -0.952145 0.138778
41779 88173 22068 0.99273 0.119028 -0.0178672
41874 88019 22075 0.99273 0.119028 -0.0178672
41880 87891 22077 0.99273 0.119028 -0.0178672
41714 87810 22070 0.99273 0.119028 -0.0178672
41280 86530 22065 0.93984 0.201676 0.275729
41316 86396 22068 0.93984 0.201676 0.275729
41298 86274 22069 0.935525 0.152372 0.318708
41333 86141 22072 0.889601 0.0836002 0.449021
41347 86012 22074 0.8833 0.0459225 0.466553
41351 85949 22075 0.914645 0.0346376 0.402772
41344 85825 22076 0.918923 -0.00574974 0.394396
41337 85702 22077 0.882477 -0.0726014 0.464718
41320 85581 22077 0.889211 -0.187908 0.417127
41296 85461 22077 0.931354 -0.207368 0.299295
41299 85336 22079 0.878841 -0.388661 0.276731
41047 85263 22067 0.731986 -0.566763 0.378123
41219 85166 22077 0.731986 -0.566763 0.378123
40919 85101 22063 -0.0937205 0.994764 0.0407564
40222 85112 22028 0.533209 -0.0276935 -0.84553
54392 78499 22776 -0.459809 -0.355158 -0.813903
53749 78284 22744 -0.369678 0.399869 0.838715
53816 78202 22747 -0.187064 0.523041 0.831526
53802 78122 22747 0.427293 0.0104842 -0.904052
53527 77684 22733 0.418369 0.0352266 -0.907594
53539 77603 22734 -0.457914 -0.0658329 0.886555
53540 77563 22734 -0.457914 -0.0658329 0.886555
53538 77482 22734 -0.454986 -0.0684469 0.887864
53528 77401 22733 -0.454986 -0.0684469 0.887864
54404 77248 22777 -0.509185 0.289568 -0.810482
53650 77160 22739 0.194408 0.61241 -0.766263
40821 75237 22092 0.64588 0.00326375 -0.763432
69886 73915 23522 -0.240593 0.970547 -0.0123774
69823 73857 23518 -0.276324 0.961061 -0.00256717
70431 73883 23547 -0.151546 0.988029 0.0288582
70559 73872 23552 -0.0936272 0.995265 0.0261247
69889 71503 23467 0.377842 -0.925048 0.0390058
70030 71552 23475 -0.0951792 0.993455 -0.063147
70551 71493 23495 0.00627925 -0.999672 -0.0248442
70606 71491 23497 -0.141611 0.988842 0.0462423
70830 71607 23509 -0.462319 0.886674 0.0083415
70675 71459 23499 0.395379 -0.916355 0.0630019
98703 75374 23044 0.201378 -0.975196 -0.091872
98781 75428 23040 0.201378 -0.975196 -0.091872
99099 75521 23025 -0.16438 0.981006 0.102984
99443 86899 22766 0.814567 0.529976 0.23581
99347 86931 22770 0.814567 0.529976 0.23581
99344 87007 22768 0.814567 0.529976 0.23581
99337 87081 22767 0.814567 0.529976 0.23581
99759 87362 22738 0.666204 -0.728308 0.160434
89133 84638 23335 -0.132165 0.77949 -0.612313
89048 84624 23340 -0.148908 0.820983 -0.551193
88969 84613 23344 -0.164754 0.835192 -0.5247
88911 84594 23347 0.203615 -0.830221 0.518916
88970 84732 23340 -0.164754 0.835192 -0.5247
88728 84598 23355 0.0674947 -0.892811 0.445345
88513 84644 23363 0.648974 0.725336 -0.22961
88577 84740 23357 -0.526693 -0.744181 -0.41084
88509 84733 23360 0.294633 0.955599 0.00478544
88492 84767 23360 0.731972 -0.549197 -0.403236
88580 84884 23352 0.866853 -0.23401 -0.440233
88614 84935 23349 0.864023 -0.029685 -0.502577
88629 84996 23346 0.790642 0.00127406 -0.612277
88679 85084 23340 0.840033 0.0258815 -0.541918
88604 85072 23344 0.840033 0.0258815 -0.541918
88572 85095 23345 0.855486 0.0039315 -0.517811
87872 84592 23393 0.0902786 -0.875501 0.474709
87826 84599 23395 0.126103 -0.892318 0.433435
87759 84589 23398 -0.0780539 -0.834609 0.545285
88709 85483 23325 0.640455 -0.0105719 -0.767923
88667 85498 23326 0.640455 -0.0105719 -0.767923
88655 85539 23325 0.678785 -0.093777 -0.728325
88667 85575 23323 0.678785 -0.093777 -0.728325
88667 85626 23321 0.678785 -0.093777 -0.728325
87788 84914 23385 0.362627 0.873257 -0.325459
87741 84920 23387 0.346432 0.888012 -0.302356
87701 84932 23388 -0.390722 -0.812468 0.432704
87655 84939 23390 0.38337 0.780589 -0.493668
87212 84614 23421 0.323849 0.273227 -0.905797
87164 84616 23423 0.307844 0.385652 -0.869773
87130 84630 23424 0.331755 0.454205 -0.826823
87110 84657 23423 0.310151 0.591794 -0.744033
87960 85482 23356 0.176208 0.97589 0.128797
87950 85523 23355 0.176208 0.97589 0.128797
87952 85576 23353 0.176208 0.97589 0.128797
87777 85489 23364 0.115886 0.917555 0.380346
87739 85503 23365 -0.188143 -0.954646 -0.230769
87718 85534 23364 0.355176 0.930381 0.0907804
87711 85578 23363 0.355176 0.930381 0.0907804
87686 85605 23363 0.730258 0.663276 -0.163672
87117 85780 23379 0.515318 -0.119555 -0.848619
87103 85817 23378 0.504928 -0.153765 -0.849355
80619 87007 23480 -0.226232 -0.968749 0.101711
80594 87050 23478 -0.226232 -0.968749 0.101711
80575 87025 23480 -0.226232 -0.968749 0.101711
80587 87331 23462 0.997116 0.0265301 0.0711012
61671 87459 22881 0.785311 0.606067 -0.12637
61766 87332 22889 0.863532 0.490775 -0.115985
61692 87302 22886 0.671867 0.735732 -0.0854034
61745 87200 22892 0.941747 0.330866 -0.0603344
61735 87133 22893 -0.172884 -0.969974 0.171058
40517 86587 21774 0.469235 0.0890634 -0.87857
40523 86457 21776 0.469235 0.0890634 -0.87857
40213 85949 21766 -0.51089 0.0793665 0.855975
40194 85825 21766 -0.489283 0.0953042 0.866902
40537 85497 21789 0.381074 -0.247573 -0.89078
40507 85377 21788 0.242112 -0.435342 -0.867098
40541 85243 21792 0.242112 -0.435342 -0.867098
54370 78757 22615 -0.280731 -0.244127 -0.92822
54410 78677 22618 -0.375134 -0.317126 -0.871037
54137 78611 22603 -0.149595 -0.441324 -0.884791
54541 78515 22626 -0.460418 -0.267026 -0.846589
54579 78474 22628 -0.296959 -0.170845 -0.939483
54670 78393 22633 -0.296959 -0.170845 -0.939483
54683 78315 22634 -0.0493837 -0.0295718 -0.998342
54703 78237 22635 -0.330959 -0.119427 -0.936057
54706 78160 22636 -0.303149 -0.0726406 -0.95017
54742 78082 22638 -0.341843 -0.0440442 -0.938724
54735 78043 22638 0.0593949 -0.000883568 -0.998234
54740 77966 22638 0.0593949 -0.000883568 -0.998234
54772 77888 22640 0.060462 -0.00126764 -0.99817
54767 77812 22640 0.060462 -0.00126764 -0.99817
54766 77735 22640 -0.341118 0.0132111 -0.939928
54755 77658 22639 -0.262329 0.0343447 -0.964367
54705 77581 22636 -0.237851 0.0571498 -0.969619
54691 77542 22635 -0.25982 0.0915407 -0.961308
54663 77465 22634 -0.25982 0.0915407 -0.961308
54649 77388 22633 -0.25982 0.0915407 -0.961308
54603 77310 22631 0.550688 -0.251196 0.796017
54433 77153 22621 0.525209 -0.287306 0.801006
54410 77075 22619 -0.403041 0.422027 -0.812066
54383 77036 22618 -0.403041 0.422027 -0.812066
69790 73873 23452 -0.273658 0.961501 -0.025063
70543 73887 23492 -0.252585 0.967225 0.0260208
70550 73858 23491 -0.252585 0.967225 0.0260208
69864 71485 23395 0.291579 -0.954335 0.0650034
70021 71544 23404 -0.0885782 0.99558 -0.0312242
70591 71476 23429 0.138975 -0.988134 -0.0654001
70444 71334 23417 0.0183138 -0.962826 0.2695
70696 71468 23433 0.400282 -0.914369 -0.060861
98898 75502 22909 0.236206 -0.970209 -0.0538664
99508 86945 22642 0.814567 0.529976 0.23581
99375 86960 22649 0.814567 0.529976 0.23581
99361 87031 22648 0.814567 0.529976 0.23581
99407 87130 22643 -0.695897 0.706871 -0.126733
99193 87105 22655 0.814567 0.529976 0.23581
89462 84664 23253 0.165507 -0.828776 0.534545
89394 84664 23256 -0.15662 0.804163 -0.573404
89305 84648 23261 -0.140021 0.798623 -0.585317
89200 84620 23268 0.148852 -0.828813 0.539363
89163 84617 23269 0.0983853 -0.850803 0.516192
89082 84605 23274 0.0296462 -0.831187 0.555201
89005 84596 23278 0.129871 -0.824834 0.550256
88941 84596 23281 0.197293 -0.83278 0.517256
88843 84570 23287 0.0662886 -0.896757 0.437531
88784 84573 23290 0.0615868 -0.910359 0.409211
88730 84578 23292 0.00687641 -0.936086 0.351704
88566 84478 23304 0.045383 0.919718 -0.389949
88414 84637 23306 0.939242 -0.107584 -0.32596
88499 84728 23298 0.775956 0.502793 -0.38091
88428 84718 23302 0.656187 0.70917 -0.257869
88416 84756 23301 0.656187 0.70917 -0.257869
88390 84782 23301 0.989745 -0.041073 -0.136815
88522 84936 23289 0.846423 0.0719603 -0.527626
88507 84972 23288 0.896772 0.0703391 -0.436867
88534 85043 23284 0.934866 0.091924 -0.342894
88559 85088 23281 0.861857 -0.378414 -0.337645
88490 85080 23285 0.888545 -0.0678042 -0.453752
88500 85137 23282 0.861857 -0.378414 -0.337645
87751 84558 23341 -0.0548393 0.962573 -0.265415
87706 84565 23343 -0.0741006 0.946476 -0.314153
87662 84573 23344 -0.034477 0.978323 -0.204197
87634 84572 23346 -0.034477 0.978323 -0.204197
88572 85524 23263 0.689468 -0.00157133 -0.724314
88569 85573 23261 0.689468 -0.00157133 -0.724314
88556 85613 23260 0.689468 -0.00157133 -0.724314
88563 85671 23258 0.689468 -0.00157133 -0.724314
87680 84913 23330 -0.390722 -0.812468 0.432704
87648 84931 23330 0.727523 0.589208 -0.351489
87602 84937 23332 -0.307651 -0.945016 0.110885
87570 84956 23333 -0.370217 -0.902338 0.220739
87551 84986 23333 0.413926 0.852714 0.31866
87474 84963 23337 -0.370217 -0.902338 0.220739
87037 84607 23372 0.0152542 0.960643 -0.277367
87001 84596 23374 0.0186057 0.970671 -0.239689
86975 84618 23374 0.0186057 0.970671 -0.239689
86948 84638 23375 0.100444 0.885283 -0.454076
87826 85511 23298 0.1015 0.972724 0.208579
87840 85575 23295 0.0325712 0.933373 0.357426
87724 85515 23303 -0.188143 -0.954646 -0.230769
87672 85517 23305 0.542946 0.839637 -0.0148374
87665 85536 23304 0.730258 0.663276 -0.163672
87640 85562 23304 0.730258 0.663276 -0.163672
87622 85595 23304 0.740583 0.654053 -0.154115
87606 85631 23303 0.690576 0.710681 0.134303
87602 85678 23301 0.738942 0.540838 0.40182
87062 85242 23344 0.857103 0.0180266 -0.51483
86958 85818 23322 0.504928 -0.153765 -0.849355
86939 85851 23322 0.504928 -0.153765 -0.849355
80567 87018 23429 -0.320881 -0.937224 0.13655
80537 87022 23429 -0.320881 -0.937224 0.13655
80505 87006 23430 -0.320881 -0.937224 0.13655
61602 87416 22771 0.914929 0.388545 -0.109258
61599 87345 22773 0.923151 0.383874 0.0208368
61681 87226 22781 0.849699 0.502327 -0.160244
61788 87131 22789 0.913858 0.35872 -0.19022
61473 87232 22769 0.944342 0.280888 0.17123
69753 73882 23396 -0.282244 0.959191 0.0170644
69779 73858 23397 -0.282244 0.959191 0.0170644
70510 73883 23439 -0.224804 0.974001 0.0280023
69832 71487 23334 -0.255206 0.966648 -0.0214783
69873 71472 23335 -0.255206 0.966648 -0.0214783
69929 71487 23339 -0.222785 0.972263 -0.0712124
69990 71485 23342 0.169154 -0.984212 0.0521001
70047 71481 23345 -0.0313172 0.995971 -0.0840326
70121 71489 23349 0.0223795 0.997349 -0.0692352
70175 71483 23351 0.0738973 0.993893 -0.0819522
70235 71482 23354 0.213921 0.975569 -0.0500341
70287 71476 23357 0.235945 0.902508 -0.360291
70326 71482 23359 0.191435 0.926091 -0.325129
70400 71491 23363 0.0577758 0.955165 -0.290382
70450 71485 23365 0.0549323 -0.992351 0.110557
70505 71482 23368 0.11367 -0.991433 0.0643343
70558 71478 23371 -0.314727 0.948975 0.0198344
70725 71554 23382 0.38019 -0.924633 -0.0225752
70631 71448 23373 0.336238 -0.938917 -0.0733455
99058 75525 22794 -0.242947 0.966431 0.0835875
89452 84580 23169 0.179235 -0.850805 0.49397
89387 84558 23174 0.167999 -0.831208 0.529971
89317 84557 23178 0.134011 -0.844589 0.518372
89254 84559 23181 0.0959364 -0.850027 0.517928
89189 84561 23185 0.0927083 -0.837814 0.538026
89113 84554 23190 0.0524111 -0.864815 0.499348
89046 84552 23193 0.110916 -0.864709 0.489873
88993 84560 23196 0.138747 -0.87776 0.45857
88907 84521 23202 0.122896 -0.871282 0.475147
88839 84518 23206 0.0951475 -0.876527 0.471855
88794 84531 23208 -0.00710645 -0.900053 0.435722
88616 84446 23222 0.0467802 -0.899646 0.434107
88653 84519 23216 0.118532 -0.898772 0.42209
88620 84540 23217 -0.0816588 0.917089 -0.39023
88571 84549 23220 0.207914 0.728326 -0.652926
88656 84730 23208 0.483124 0.447109 -0.752784
88393 84574 23228 -0.0880757 -0.470668 0.877903
88462 84674 23220 0.676707 0.384167 -0.628079
88419 84687 23222 0.836753 0.152752 -0.525843
88455 84738 23218 0.781313 -0.387019 -0.489659
88444 84777 23217 0.797583 -0.419846 -0.433116
88540 84900 23207 0.805409 -0.368385 -0.464337
88538 84947 23205 0.944762 -0.187579 -0.268774
88541 85045 23200 0.985122 -0.127732 0.114977
88552 85103 23197 -0.241478 0.953269 -0.181566
88522 85103 23199 0.932218 -0.359412 -0.0423435
87775 84534 23263 0.0764227 -0.921288 0.381297
87708 84524 23267 0.113342 -0.918806 0.378086
87664 84533 23269 -0.0188706 0.935619 -0.352506
87621 84541 23271 -0.00462436 0.966048 -0.25832
87830 84810 23248 0.1826 -0.83011 0.526853
87812 84818 23249 0.160702 -0.800747 0.577044
87815 84867 23246 0.0677533 -0.821638 0.565968
87785 84888 23247 0.0206456 0.81738 -0.575729
87637 84806 23258 0.696327 0.488399 -0.525924
87641 84856 23256 0.959979 0.278875 -0.0258694
87643 84905 23254 0.970436 0.208845 -0.120989
87636 84946 23252 0.978354 -0.0260754 0.205289
87629 84963 23252 0.959651 -0.177252 0.218292
87595 84980 23253 0.725562 -0.0965266 0.681353
87678 85102 23243 0.909059 -0.0699523 0.410754
87942 85440 23214 0.057816 0.957415 0.282868
86945 84573 23304 -0.499035 -0.385365 0.776182
86886 84564 23308 0.474595 0.394009 -0.787094
86871 84571 23308 0.474595 0.394009 -0.787094
86863 84609 23307 -0.0248633 0.908625 -0.416872
87832 85565 23213 0.0510866 0.899656 0.433601
87815 85600 23212 -0.0362635 -0.804902 -0.592298
87720 85561 23219 -0.0972857 -0.894372 -0.436617
87664 85558 23222 -0.483519 -0.800568 -0.353978
87636 85582 23222 -0.630665 -0.65886 -0.41008
87637 85609 23221 -0.630665 -0.65886 -0.41008
87782 85906 23199 -0.00226249 -0.351947 -0.936017
87527 85707 23222 -0.521758 -0.454091 -0.722198
87651 85882 23207 0.399972 -0.507083 -0.763472
86827 85834 23248 0.407031 -0.338847 -0.848238
86818 85877 23247 0.407031 -0.338847 -0.848238
86850 85966 23241 0.397274 -0.356595 -0.845585
80553 86973 23364 -0.239944 -0.965136 0.10459
80530 87027 23361 -0.239944 -0.965136 0.10459
80531 87270 23344 0.996463 -0.0433848 0.071964
61631 87445 22630 0.953121 0.134438 0.271086
61664 87353 22635 0.949553 0.221392 0.222115
61774 87219 22646 0.93176 0.360662 0.041794
61670 87205 22641 0.877232 0.395974 0.271421
61719 87106 22647 0.979369 0.173892 -0.102946
55627 78467 22396 0.527685 0.474159 0.704785
55442 78438 22384 0.402096 0.363865 0.840191
55270 78370 22372 0.188121 -0.353121 -0.916469
55608 78282 22396 -0.455905 -0.268617 -0.848526
55689 78205 22401 0.959196 0.158577 0.234088
55701 78131 22402 0.929688 0.126834 0.345822
55715 78056 22403 0.982481 0.0391487 0.182206
55696 77983 22402 0.930216 -0.019104 -0.366515
55699 77946 22402 0.93135 0.00544941 -0.364085
55703 77871 22403 0.99705 0.0767157 -0.00241099
55698 77797 22403 0.966461 0.0945651 0.23877
55715 77723 22404 0.993179 0.0757973 0.0885994
55721 77649 22404 0.930885 -0.147141 0.334369
55698 77575 22403 0.820502 -0.240893 0.518409
55690 77501 22402 0.743439 -0.259184 0.616541
55503 77390 22389 0.944101 -0.32465 -0.0572402
55559 77315 22393 0.651689 -0.357732 0.668827
55482 77240 22388 -0.579716 0.491342 -0.65001
55594 77167 22395 0.609957 -0.477063 0.632743
69750 73874 23324 -0.285499 0.958143 0.021276
69785 73854 23326 -0.285499 0.958143 0.021276
70496 73884 23372 -0.0244329 -0.997906 -0.0598838
70498 73853 23372 -0.0600572 0.997346 0.0411627
69839 71449 23254 -0.350088 0.93319 -0.0812056
70039 71535 23269 0.0944001 -0.988756 0.115978
70439 71350 23285 -0.0598312 0.929572 -0.363753
70624 71438 23299 0.323418 -0.946254 0.00212087
89526 84564 23104 0.193702 -0.885422 0.422502
89451 84559 23109 0.189276 -0.88013 0.435369
89373 84552 23114 0.158126 -0.897202 0.412341
89310 84531 23119 0.140113 -0.926474 0.349305
89236 84526 23124 0.0922004 -0.92529 0.367881
89168 84525 23128 0.076499 -0.908423 0.410994
89107 84528 23131 0.0407933 -0.892049 0.450094
89032 84520 23136 0.113988 -0.885818 0.449814
88982 84531 23139 0.133592 -0.87405 0.467108
88912 84502 23144 0.100527 -0.898815 0.426645
88857 84509 23147 0.0758414 -0.901383 0.42633
88806 84518 23150 0.0263518 -0.898794 0.437579
88741 84516 23154 0.0207184 -0.883728 0.467542
88682 84518 23157 0.0715221 -0.864369 0.497746
88620 84517 23161 -0.00565394 -0.93154 0.363595
88581 84533 23162 0.0740726 -0.935198 0.346292
88520 84510 23167 0.15314 0.855732 -0.494238
88479 84525 23169 -0.11758 -0.600173 0.791181
88418 84523 23172 0.0005347 -0.651294 0.758826
88372 84533 23174 -0.0203399 -0.571501 0.820349
88312 84533 23178 -0.0758862 -0.662016 0.745638
88260 84537 23181 -0.0698094 -0.666493 0.742235
88208 84542 23184 -0.00283459 -0.633711 0.773565
88192 84552 23184 -0.000311551 0.652135 -0.758103
88232 84630 23178 0.0587541 0.541563 -0.838604
88473 84871 23153 0.949686 -0.309449 -0.0483493
88602 85024 23139 0.950589 -0.197197 0.239778
88594 85065 23137 0.985358 -0.159363 -0.0606099
88536 85067 23140 0.950589 -0.197197 0.239778
88409 85011 23150 0.950589 -0.197197 0.239778
87819 84545 23206 0.0762159 0.906303 -0.4157
87763 84543 23209 0.0381961 -0.913925 0.404081
87634 84480 23219 0.0652156 -0.887721 0.45574
87683 84567 23212 -0.0327817 0.959063 -0.281288
87881 84781 23191 -0.00381221 0.464197 -0.885724
87903 84847 23187 0.137902 -0.820352 0.554983
87906 84896 23184 -0.0123183 -0.727796 0.685683
87786 84816 23195 -0.145101 0.749559 -0.645838
87698 84786 23201 -0.114411 -0.656537 0.745566
87669 84807 23202 -0.0891457 -0.596375 0.79774
87623 84814 23204 -0.086381 0.425688 -0.900738
87618 84856 23202 0.935044 0.238893 -0.26196
87602 84889 23201 0.959979 0.278875 -0.0258694
87649 84978 23194 0.954683 -0.219115 0.201416
87699 85047 23188 -0.481022 -0.163074 -0.861408
87684 85081 23187 0.894204 -0.148795 0.422207
87709 85152 23183 -0.4985 -0.297409 -0.814277
87705 85198 23180 0.894204 -0.148795 0.422207
86953 84595 23251 0.396688 0.575775 -0.714928
86926 84592 23253 0.168089 0.783445 -0.598298
