ply
format ascii 1.0
comment Created by Open3D
element vertex 1029
property float x
property float y
property float z
property float nx
property float ny
property float nz
end_header
76879 54067 3919 0.25278 -0.967391 -0.0160469
78763 39610 3543 -0.0116197 -0.00237765 -0.99993
79034 61124 4104 0.999934 -0.0097501 -0.00600747
83449 68227 4263 0.882124 0.469338 -0.0397364
83569 68051 4257 0.886115 0.463378 -0.00897046
83495 68265 4263 0.882124 0.469338 -0.0397364
95262 71016 4094 0.981981 -0.187785 0.0211992
107338 95464 3527 0.0897107 -0.994117 0.0606896
107130 95467 3532 -0.0652213 0.995911 0.0625155
106913 95462 3539 -0.0772995 0.992003 0.0997738
106720 95470 3544 0.0248613 0.998698 -0.044546
106537 95483 3549 0.0415143 0.997835 -0.0510043
106357 95496 3553 0.0400264 0.998824 -0.0273518
106168 95503 3559 0.0242109 0.999502 -0.0202152
106025 95478 3563 0.0276437 0.999607 -0.0046024
105846 95488 3568 0.0253738 0.999393 -0.0238758
105673 95502 3572 0.0408867 0.998004 -0.0481371
105512 95522 3576 0.0831802 0.985651 -0.146876
105347 95537 3581 -0.101753 -0.96578 0.238569
105193 95559 3584 -0.199917 -0.902022 0.382608
105030 95575 3589 0.165148 0.886206 -0.432857
104318 95420 3611 -0.0801274 -0.959368 0.270542
104303 95523 3609 -0.117858 -0.956051 0.26847
104118 95520 3614 -0.287266 -0.940394 0.182039
103990 95663 3615 0.329361 0.896981 -0.294867
103884 95652 3619 0.250981 0.915583 -0.31419
103797 95708 3620 0.237036 0.912014 -0.334731
103776 96665 3603 0.465942 -0.153162 -0.871458
104228 97211 3582 0.386763 -0.40703 -0.827491
104102 97242 3584 0.387893 -0.402795 -0.829033
103995 97227 3587 0.448803 -0.314888 -0.836315
107106 103013 3396 0.646326 0.761673 -0.0460064
107015 103013 3398 0.674125 0.738529 -0.0114743
106926 103089 3399 0.721216 0.692366 -0.0218208
106863 103189 3398 0.769162 0.636645 -0.0554325
106847 103327 3396 0.878977 0.476728 -0.0113633
96390 96275 3796 -0.239597 0.857567 -0.455162
96288 96284 3798 -0.0893753 0.892013 -0.443085
96079 96297 3803 0.162955 0.925438 -0.342068
95963 96291 3806 0.141502 0.977234 -0.158088
95864 96301 3808 -0.0946909 -0.990432 0.100394
95762 96307 3810 0.0694048 0.992166 -0.10387
95681 96281 3812 0.00992182 0.998253 -0.0582416
95587 96294 3814 -0.011523 0.997154 -0.0745099
95489 96303 3816 -0.0149257 -0.999655 0.0216092
95388 96308 3818 0.0275013 0.999617 -0.00307538
95294 96319 3820 0.0985763 0.9499 0.296601
95194 96325 3822 0.21252 0.886384 0.411289
95099 96335 3824 0.373845 0.764128 0.525687
95025 96312 3826 -0.414251 -0.650693 -0.636391
94943 96333 3828 -0.032661 0.00950016 -0.999421
94848 96342 3830 0.230469 0.393364 -0.890027
94822 96422 3828 -0.310484 -0.236961 0.92057
94791 96496 3827 -0.207186 -0.200926 0.957446
94777 96589 3825 -0.125849 -0.127782 0.983785
94766 96685 3823 0.0883149 0.109046 -0.990106
94795 96770 3821 -0.140601 0.0451642 -0.989036
94807 96893 3818 -0.25231 -0.0692645 -0.965164
94833 97032 3814 0.5287 0.0678619 0.846091
94865 97177 3810 -0.531714 -0.0602365 -0.844779
94886 97312 3806 0.298103 0.302986 0.905171
98236 110393 3407 0.918457 0.382216 -0.101723
98173 110508 3405 0.916122 0.382966 -0.118563
98132 110660 3402 0.916122 0.382966 -0.118563
98057 110758 3400 0.924875 0.365903 -0.103541
98024 110925 3396 0.932559 0.33633 -0.131206
97964 111050 3394 0.932559 0.33633 -0.131206
97958 111151 3391 0.932559 0.33633 -0.131206
82730 112727 3507 0.913239 0.407165 -0.0145516
82648 112919 3502 0.916763 0.399407 -0.00434113
82560 113077 3497 0.916763 0.399407 -0.00434113
82475 113270 3491 0.909204 0.416237 -0.00971889
82394 113498 3484 0.909204 0.416237 -0.00971889
66713 115211 3375 -0.124716 -0.991887 0.0246001
66570 115265 3372 -0.124716 -0.991887 0.0246001
62293 116147 3296 0.995623 -0.0671415 -0.0650068
62233 115972 3301 0.995623 -0.0671415 -0.0650068
62141 116023 3298 0.995623 -0.0671415 -0.0650068
61720 111411 3425 0.890182 -0.454794 -0.0271748
56444 111269 3341 0.0568824 -0.995077 -0.0811552
55817 111205 3331 -0.582091 0.812878 -0.0200047
55745 111095 3333 0.534209 -0.843321 0.0585725
55631 111042 3332 -0.511395 0.858447 -0.0392842
55477 111046 3329 -0.512129 0.858151 -0.036057
31356 95322 2988 0.3535 -0.933777 0.0556585
31321 95169 2988 -0.43062 0.902377 -0.0168024
51554 85578 3695 0.711118 -0.700266 0.0627681
2781 96104 2098 0.0988377 0.0211961 0.994878
46651 86331 3537 -0.0307894 -0.99788 0.0573339
46608 86235 3536 0.174455 0.984551 0.0149995
30162 85681 3020 -0.00386846 0.998352 -0.0572633
29022 85671 2984 -0.00974665 -0.999658 0.0242714
27695 85677 2942 -0.0912275 0.994441 -0.0525824
22697 85848 2782 0.010705 0.920176 -0.391359
17604 85854 2620 0.00368804 -0.00979601 -0.999945
15166 85910 2542 -0.0901319 0.25057 -0.963894
12685 85956 2463 -0.0728891 0.2458 -0.966576
10157 86099 2382 -0.14153 0.0597812 -0.988127
7662 86118 2303 0.0930463 0.0340584 0.995079
5157 86123 2223 0.0930463 0.0340584 0.995079
4816 85920 2212 0.0930463 0.0340584 0.995079
7872 79418 2319 -0.0728891 0.2458 -0.966576
23909 72949 2820 0.931863 -0.360119 0.0441183
51702 73234 3700 -0.422331 -0.906419 -0.00644634
51632 73128 3697 0.0165537 -0.999116 -0.0386378
56975 68030 3800 -0.0100623 -0.994886 0.100504
70135 69674 4169 0.763097 -0.645483 -0.0321579
70314 69850 4177 0.69423 -0.719697 -0.00898584
67943 64456 3994 0.836901 -0.546569 0.0293002
67821 64185 3985 0.812143 -0.583198 0.0174016
65337 57135 3752 0.761209 -0.648506 -0.000770103
66513 57580 3783 0.757498 -0.652817 -0.00505744
69274 35604 3147 -0.0266896 0.0854742 -0.995983
69415 35591 3148 -0.0266896 0.0854742 -0.995983
76817 54135 3770 -0.539893 0.840712 -0.0414555
78629 39590 3306 -0.00815768 -0.010124 -0.999915
78754 39598 3306 -0.00815768 -0.010124 -0.999915
79022 61429 4005 0.999444 -0.0318005 -0.0100023
79086 61169 3997 0.999719 -0.0106947 -0.0211618
83458 68288 4192 0.894187 0.446568 -0.0317119
83607 68046 4182 0.880026 0.473393 -0.0381196
95256 71045 3983 0.981981 -0.187785 0.0211992
118685 93440 2942 0.172531 0.969085 -0.176372
107385 95502 3308 0.0844596 -0.996379 0.0098107
107170 95501 3316 0.0844596 -0.996379 0.0098107
106987 95456 3323 0.0831896 -0.993267 -0.0806204
106789 95462 3329 0.0579497 -0.998313 0.00349216
106610 95477 3335 -0.0448401 -0.997638 0.0520339
106414 95481 3341 -0.0565937 -0.995947 0.0699094
106239 95496 3347 -0.0486783 -0.99742 0.0527559
106064 95511 3352 -0.0286238 -0.998749 0.0410093
105881 95519 3358 -0.0159091 -0.999196 0.0367884
105725 95484 3364 -0.0216214 -0.998799 0.0439723
105597 95524 3368 -0.030279 -0.997949 0.0563975
105223 95529 3380 -0.0850579 -0.982307 0.166848
105062 95545 3385 -0.0871557 -0.979071 0.183912
104902 95561 3390 -0.0554568 -0.990678 0.124425
104729 95569 3395 0.0278222 0.993265 -0.112474
104601 95546 3400 0.0132703 0.999326 0.0342291
104434 95555 3405 0.0161136 0.997751 0.0650584
104285 95575 3410 -0.127559 -0.991243 -0.0341328
104153 95604 3414 -0.220972 -0.97528 0.000858907
104016 95630 3417 -0.24756 -0.968727 0.0167975
103893 95663 3421 -0.176418 -0.981245 0.0776795
103763 95692 3424 0.235036 0.915959 -0.325233
103665 95685 3428 0.272107 0.883851 -0.380479
103528 95708 3432 0.369024 0.777522 -0.509196
103455 95772 3433 -0.531149 -0.571722 0.625312
103432 95869 3431 0.643421 0.337941 -0.686881
103412 95968 3430 0.615156 0.23521 -0.752502
103395 96070 3428 0.764619 0.103413 -0.636131
103376 96170 3427 0.771879 0.0670011 -0.632229
103396 96240 3425 0.767392 0.0480672 -0.639374
103384 96347 3423 0.757617 0.0251174 -0.652216
103385 96462 3420 0.744887 0.00133167 -0.667189
103402 96589 3417 0.586564 -0.0837392 -0.805562
103414 96712 3414 -0.611363 0.149223 0.777153
103451 96855 3409 -0.628423 0.198462 0.752128
103481 96993 3405 -0.632229 0.233251 0.738838
103568 97113 3400 0.543943 -0.303303 -0.78239
107186 103027 3151 0.748144 0.663353 -0.0155722
107032 103050 3155 0.779698 0.625988 0.014461
106928 103115 3156 0.782672 0.621903 0.0257041
106914 103179 3155 0.782672 0.621903 0.0257041
106885 103307 3153 0.808783 0.588097 0.00337108
96477 96243 3634 0.303412 -0.848622 0.433338
96270 96154 3642 0.0341424 -0.934398 0.354591
96458 96438 3629 0.196488 -0.851664 0.485861
95979 96140 3650 -0.308155 -0.928556 0.206942
96000 96266 3646 -0.334824 -0.939573 0.0713834
95926 96299 3647 -0.261259 -0.959072 0.109203
95833 96315 3650 -0.110067 -0.985883 0.126175
95708 96299 3653 -0.0147961 -0.996961 0.0764836
95617 96315 3655 0.0301896 0.999257 0.023976
95528 96279 3659 -0.0172029 0.999852 -5.50418e-05
95299 96263 3666 0.0130314 -0.985021 0.171943
96316 97399 3607 0.216871 0.110428 -0.969934
96292 97487 3605 0.216871 0.110428 -0.969934
96095 97456 3611 -0.155458 -0.133237 0.978816
95885 97465 3617 0.0736775 -0.165917 0.983384
94672 96307 3681 0.256529 0.720399 -0.644374
94568 96304 3684 0.286377 0.679115 -0.675863
94635 97479 3649 0.127755 -0.565266 -0.814956
82711 112669 3290 0.917596 0.395421 -0.0407493
82681 112856 3283 0.917596 0.395421 -0.0407493
82598 113053 3276 0.913946 0.404232 -0.0360405
82499 113123 3273 0.913954 0.404023 -0.0381319
82429 113451 3261 0.907176 0.419156 -0.0366074
66669 115279 3125 0.0472713 -0.997967 0.0427383
66612 115264 3125 0.143959 0.989568 -0.00563921
62335 116148 3034 0.995623 -0.0671415 -0.0650068
62249 116031 3037 0.995623 -0.0671415 -0.0650068
62205 115823 3043 0.995623 -0.0671415 -0.0650068
61989 115996 3034 0.995623 -0.0671415 -0.0650068
61727 111484 3186 0.892941 -0.447768 -0.0464695
56476 111293 3087 -0.0396867 0.998952 0.0228063
55815 111275 3073 0.602165 -0.797032 0.0462273
55759 111142 3076 0.602165 -0.797032 0.0462273
55677 111046 3077 -0.530354 0.846812 -0.0404322
55520 111053 3073 -0.530354 0.846812 -0.0404322
31316 95291 2660 0.0178251 -0.995818 -0.0896025
31352 95196 2663 0.0178251 -0.995818 -0.0896025
17675 95998 2149 0.165833 -0.022373 -0.9859
17582 95818 2148 0.165833 -0.022373 -0.9859
51561 85532 3515 0.227305 0.97379 -0.00802684
46649 86374 3323 0.0653302 0.99703 -0.0407928
46400 86322 3314 0.0948955 0.99411 -0.052349
46594 86176 3322 0.0653302 0.99703 -0.0407928
42730 85588 3180 -0.123068 0.312439 -0.941932
40184 85529 3084 -0.0311595 0.996957 -0.07145
37683 85596 2988 0.00346575 0.999994 0.000765799
35194 85691 2892 0.00647773 0.999822 0.0177019
35161 85557 2892 0.00524205 0.999896 -0.0134389
32485 85638 2789 0.0075707 0.99844 -0.0553151
29951 85745 2692 -0.0032665 -0.998857 0.0476965
27470 85740 2597 -0.0267348 0.998328 -0.051257
25179 85681 2510 0.00514904 0.970335 -0.24171
22604 85803 2411 0.00566069 0.895916 -0.444188
23875 72979 2459 0.931863 -0.360119 0.0441183
51602 73255 3515 -0.422331 -0.906419 -0.00644634
51752 73200 3521 0.0165537 -0.999116 -0.0386378
57012 67970 3641 -0.0100623 -0.994886 0.100504
56737 66514 3604 0.983676 -0.174215 -0.0450648
56786 66451 3604 0.983676 -0.174215 -0.0450648
50060 59967 3251 0.601426 -0.609789 -0.516182
70273 69845 4093 0.744419 -0.667657 -0.00862183
70119 69604 4082 0.737634 -0.675085 -0.0125358
63415 59051 3602 0.695015 0.714108 0.0836873
63342 58817 3593 0.695015 0.714108 0.0836873
67946 64441 3873 0.804042 -0.593897 0.0283229
68033 64465 3876 0.804042 -0.593897 0.0283229
65288 57138 3581 -0.266807 0.963424 -0.0250691
66949 59655 3697 0.701211 0.712809 0.0143717
67036 59661 3699 0.701211 0.712809 0.0143717
66957 59379 3688 0.701211 0.712809 0.0143717
66517 57435 3614 -0.275128 0.961316 -0.0132475
69387 35639 2856 -0.0266896 0.0854742 -0.995983
76852 54110 3603 0.58431 -0.809997 0.0498653
78716 39396 3038 -0.00815768 -0.010124 -0.999915
79033 61420 3886 0.999016 -0.0438912 -0.00638341
79097 61196 3878 0.999016 -0.0438912 -0.00638341
83459 68262 4110 0.909103 0.416257 0.016191
83580 68086 4102 0.867442 0.496368 0.0341111
95244 70999 3860 0.981981 -0.187785 0.0211992
90365 74900 4093 0.39235 0.210063 -0.895508
90354 74947 4094 0.386807 0.187092 -0.902982
90325 75000 4096 -0.385459 -0.149139 0.910593
95660 73066 3877 0.982738 -0.184456 0.0142251
95655 73129 3878 0.982738 -0.184456 0.0142251
90392 75081 4094 -0.360083 -0.104851 0.92701
90287 75161 4099 0.422478 -0.000627321 -0.906373
90285 75203 4100 -0.396571 -0.0304456 0.917499
90242 75260 4102 0.426297 -0.0149311 -0.90446
90276 75290 4101 -0.502778 0.133271 0.85408
90281 75329 4102 0.491766 -0.154338 -0.85694
90305 75362 4101 0.674958 -0.240574 -0.697535
90300 75385 4102 0.537227 -0.184926 -0.822915
90321 75419 4101 0.457599 -0.153195 -0.875862
90326 75459 4102 0.454043 -0.190353 -0.870409
90367 75486 4101 0.730418 -0.41556 -0.542032
90373 75525 4101 0.396546 -0.192919 -0.897515
90404 75556 4100 0.205781 -0.163802 -0.964792
90415 75594 4100 0.211564 -0.203173 -0.956013
90438 75607 4099 0.200648 -0.211201 -0.956627
90475 75637 4098 0.216865 -0.246379 -0.944599
90504 75669 4098 0.209062 -0.252067 -0.944857
90531 75702 4097 -0.189184 0.309535 0.931879
90577 75729 4096 0.186052 -0.35307 -0.916911
90615 75759 4095 0.129712 -0.418514 -0.8989
90642 75792 4094 0.152946 -0.452321 -0.878643
90674 75803 4093 0.166145 -0.461524 -0.871431
90730 75828 4091 0.204574 -0.556987 -0.804932
90781 75855 4090 0.23018 -0.589029 -0.774636
90831 75882 4088 0.240111 -0.603564 -0.760301
90884 75909 4086 -0.290684 0.688934 0.663983
90949 75932 4084 0.227311 -0.66457 -0.711812
90995 75962 4083 -0.301683 0.805251 -0.510449
91072 75962 4080 -0.238647 0.794171 -0.558874
91113 75993 4079 -0.241668 0.683466 0.688818
91182 76017 4076 -0.243784 0.759841 0.602669
91249 76042 4074 -0.243784 0.759841 0.602669
91300 76071 4073 -0.256139 0.870349 0.420577
91361 76098 4071 -0.263411 0.876757 0.402382
91420 76126 4069 -0.281072 0.860476 0.424946
118630 93224 2695 0.176423 0.972156 -0.154235
118539 93474 2695 0.176423 0.972156 -0.154235
117975 93905 2713 0.176423 0.972156 -0.154235
115574 93423 2820 0.172531 0.969085 -0.176372
107387 95470 3113 0.076001 -0.997106 0.00172568
107234 95503 3118 0.0755289 -0.997143 -0.0011869
107234 95621 3116 0.0755289 -0.997143 -0.0011869
107142 95629 3119 -0.0565309 0.997361 0.0455617
106633 95458 3142 -0.0448401 -0.997638 0.0520339
106437 95462 3150 -0.0459818 -0.996909 0.0637067
106249 95471 3157 -0.0534397 -0.995113 0.0830371
106078 95488 3163 -0.035431 -0.997799 0.0560479
105902 95500 3170 -0.0216967 -0.998711 0.0458772
105715 95506 3177 -0.00484641 -0.998622 0.0522519
105570 95477 3183 -0.0312901 -0.998736 0.0393343
105394 95487 3189 -0.0488158 -0.998425 0.027664
105237 95508 3195 -0.0559109 -0.996138 0.0676926
105070 95521 3201 -0.0724232 -0.990923 0.11325
104902 95533 3207 -0.0525493 -0.992723 0.108347
104739 95546 3213 0.0323735 0.994496 -0.099645
104581 95562 3218 -0.0173016 -0.997333 0.0709119
104454 95540 3224 -0.0351145 -0.995966 0.0825783
104283 95546 3230 -0.0977241 -0.993163 0.0638459
104122 95558 3236 -0.183249 -0.981597 -0.0537335
103973 95576 3241 -0.146025 -0.982192 0.118219
103823 95592 3246 -0.0575028 -0.989081 0.135692
103678 95611 3251 -0.135085 -0.950301 0.280499
103565 95650 3255 0.337549 0.819072 -0.463877
103452 95633 3259 0.410894 0.76723 -0.492467
103383 95699 3260 -0.525473 -0.655734 0.542117
103310 95762 3261 0.721024 0.461052 -0.517258
103257 95839 3261 0.770874 0.367854 -0.520035
103252 95948 3259 0.827999 0.194702 -0.525841
103218 96037 3258 0.81946 0.154167 -0.552013
103191 96132 3257 0.837693 0.0708919 -0.541521
103216 96205 3254 0.783336 0.0852425 -0.615726
103202 96310 3252 0.767782 0.0571819 -0.638155
103186 96412 3250 0.87306 0.0455856 -0.485477
103203 96538 3246 0.906113 -0.0391441 -0.421221
103209 96658 3243 0.861502 -0.135308 -0.489393
103227 96786 3239 0.839891 -0.236159 -0.488683
103267 96930 3234 0.813775 -0.255619 -0.521947
103336 97037 3228 0.821756 -0.258852 -0.507654
103385 97189 3223 0.821756 -0.258852 -0.507654
106915 103204 2934 0.820327 0.571459 0.0223458
106921 103362 2930 0.820327 0.571459 0.0223458
96555 96198 3486 0.502736 -0.783527 0.36516
96441 96197 3490 0.188393 -0.914134 0.358982
96641 96491 3475 0.569863 -0.738464 0.360454
96030 96073 3507 -0.404624 -0.893464 0.194938
96073 96219 3501 -0.505421 -0.861127 -0.054864
96005 96259 3502 0.740807 0.55929 0.372021
95889 96252 3506 0.528135 0.720901 0.44875
95813 96284 3508 0.185208 0.915438 0.35731
95687 96267 3512 -0.0632233 -0.991356 0.114959
95591 96279 3515 0.00576146 0.984461 0.175511
95355 96203 3525 0.646473 -0.738725 0.190677
95307 96261 3524 0.978298 -0.0682479 -0.195641
95428 96488 3513 -0.344575 -0.733685 -0.58564
95402 96569 3512 -0.44781 -0.752526 -0.482878
95274 96547 3516 0.988146 0.11807 0.098114
95191 96569 3518 0.874523 0.0624468 0.480946
95451 97112 3493 -0.343979 0.107842 -0.932764
94537 96263 3548 -0.0424369 -0.944172 0.326709
94455 96283 3550 -0.121901 -0.932701 0.339425
95358 97349 3488 0.238331 -0.0720382 0.968509
95351 97568 3481 -0.120912 0.0689457 -0.990266
85722 94531 3837 0.962939 -0.251637 -0.0970957
85749 94712 3829 0.95718 -0.261159 -0.124909
85696 94724 3830 0.95718 -0.261159 -0.124909
66703 115310 2900 -0.0324289 0.998936 -0.0327942
66581 115300 2899 0.0287075 -0.998693 0.0422786
61759 111502 2971 0.892941 -0.447768 -0.0464695
56502 111332 2856 0.119812 -0.991808 0.0442869
55804 111261 2841 0.276223 -0.958791 0.0664911
55743 111136 2844 -0.278325 0.957781 -0.07204
55675 111125 2842 0.573141 -0.818708 0.0350103
55553 111085 2841 -0.539906 0.840294 -0.0490752
42746 95533 2835 0.293584 0.241417 0.924947
37782 95654 2629 0.0642918 0.161233 -0.98482
35084 95865 2514 -0.0608356 0.995961 0.0660428
35117 95696 2518 -0.0608356 0.995961 0.0660428
32552 95839 2409 -0.371445 0.924488 -0.0857375
30008 95808 2302 0.198655 0.979801 -0.0229224
31338 95194 2367 0.0178251 -0.995818 -0.0896025
27783 95941 2206 -0.184379 -0.982851 -0.00281242
27629 95814 2202 -0.184912 -0.982748 -0.00377602
51569 85636 3349 0.227305 0.97379 -0.00802684
51542 85553 3349 0.227305 0.97379 -0.00802684
46636 86354 3128 0.0766374 0.995835 -0.0493839
46383 86356 3117 0.0766374 0.995835 -0.0493839
46584 86207 3127 0.0766374 0.995835 -0.0493839
44124 86618 3017 0.493944 -0.0844168 0.865386
44096 86511 3016 0.521898 -0.103468 0.84671
44096 86398 3017 -0.518523 -0.0510704 -0.853537
44086 86288 3018 -0.496829 0.109659 -0.860893
44086 86175 3019 -0.478162 -0.0109771 -0.878203
44093 86118 3020 -0.473161 0.00463746 -0.880964
42544 85659 2956 -0.152092 0.341109 -0.927638
42694 85517 2963 -0.123068 0.312439 -0.941932
40204 85694 2853 -0.0311595 0.996957 -0.07145
40137 85581 2851 -0.0311595 0.996957 -0.07145
37501 85674 2734 0.00782286 0.999941 0.00758089
35183 85750 2632 0.00223916 0.99995 -0.00977781
35084 85625 2628 0.00524205 0.999896 -0.0134389
32530 85696 2515 0.0075707 0.99844 -0.0553151
30213 85703 2413 0.00613702 0.999675 -0.0247634
29024 85779 2360 -0.00974665 -0.999658 0.0242714
27708 85786 2302 -0.0417839 0.998129 -0.0446378
25191 85761 2191 0.00514904 0.970335 -0.24171
16820 85287 1823 -0.0017634 -0.0095736 -0.999953
23876 72977 2132 0.931863 -0.360119 0.0441183
51591 73269 3351 -0.422331 -0.906419 -0.00644634
51642 73192 3352 0.0165537 -0.999116 -0.0386378
56972 67958 3494 0.981966 -0.186986 0.0279012
56722 66518 3453 0.983757 -0.172041 -0.0512276
56773 66456 3453 0.983757 -0.172041 -0.0512276
50037 60058 3047 0.601426 -0.609789 -0.516182
70250 69848 4017 0.744445 -0.667425 0.0185966
70152 69674 4008 0.745308 -0.665872 0.0336277
63328 58818 3441 0.695015 0.714108 0.0836873
67936 64416 3763 0.797062 -0.603874 0.00530223
67978 64374 3762 0.809123 -0.586952 0.0284184
65850 60672 3573 0.697831 0.716 0.0194075
65260 57115 3425 0.268737 -0.963 0.0202711
67010 59625 3561 0.701211 0.712809 0.0143717
67112 59658 3565 0.701211 0.712809 0.0143717
66487 57401 3463 -0.261605 0.964428 -0.03797
76878 54074 3450 -0.350142 -0.935597 0.0453671
78668 39791 2817 -0.00815768 -0.010124 -0.999915
79041 61381 3777 0.999943 -0.00983664 0.00422403
79099 61352 3776 0.999943 -0.00983664 0.00422403
83446 68346 4041 0.921405 0.388569 -0.00524186
83524 68263 4037 0.886297 0.461776 0.0352143
95288 70984 3746 0.981981 -0.187785 0.0211992
90291 74759 4018 0.674025 0.307483 -0.671672
90247 74820 4021 -0.617552 -0.315613 0.720429
90224 74871 4023 -0.507438 -0.317195 0.801183
90199 74923 4025 -0.514149 -0.333263 0.790308
90176 74953 4026 -0.511408 -0.319667 0.797668
90168 74998 4027 0.482372 0.177632 -0.857767
90139 75051 4029 0.478609 0.132327 -0.867999
90147 75089 4030 0.464425 0.119598 -0.8775
90162 75125 4030 0.620965 0.0480196 -0.782366
90159 75168 4030 -0.597826 0.00501713 0.80161
90167 75207 4031 -0.530292 -0.0515133 0.846248
90153 75232 4032 -0.530292 -0.0515133 0.846248
90100 75293 4035 -0.494782 -0.150253 0.855929
90089 75338 4036 0.583634 0.239582 -0.775869
90071 75385 4037 0.457437 0.215495 -0.862736
90075 75424 4038 0.375767 0.170252 -0.910941
90083 75462 4038 0.558987 0.0617754 -0.826872
90077 75504 4039 0.342385 0.0422929 -0.938607
90074 75526 4039 0.545527 -0.0124156 -0.838001
90080 75564 4039 0.47317 -0.0362747 -0.880224
90088 75601 4040 0.555095 -0.186825 -0.810534
90098 75638 4040 0.503345 -0.241257 -0.829722
90126 75670 4039 0.459347 -0.299799 -0.836134
90137 75706 4039 0.459347 -0.299799 -0.836134
90183 75732 4037 0.384256 -0.408943 -0.827715
90216 75741 4036 0.252155 -0.279721 -0.926377
90267 75765 4034 0.127396 -0.26617 -0.95547
90323 75789 4032 -0.112834 0.290964 0.950057
90376 75813 4030 -0.125531 0.322707 0.938138
90433 75836 4028 -0.147864 0.324468 0.934268
90492 75859 4026 0.146399 -0.360075 -0.921365
90555 75881 4024 0.0677487 -0.475211 -0.87726
90614 75904 4021 0.134692 -0.550064 -0.824189
90692 75902 4018 0.174199 -0.577063 -0.797906
90619 75965 4022 -0.11757 0.655052 0.746381
90787 75958 4015 -0.253139 0.705654 0.661795
90852 75981 4012 -0.305883 0.727598 0.614033
90926 76002 4009 -0.297745 0.733303 0.61124
91020 76018 4005 -0.202883 0.960729 -0.189309
91058 76028 4004 -0.202883 0.960729 -0.189309
91523 76163 3985 0.34328 -0.82154 -0.455226
107500 95464 2919 0.076001 -0.997106 0.00172568
106795 95423 2951 -0.10954 0.993739 0.0219787
106695 95483 2954 -0.106808 0.993962 0.0251467
106522 95443 2962 0.0353912 0.997409 -0.0626275
106345 95458 2969 0.0362519 0.995565 -0.0868103
106155 95463 2978 0.0329778 0.995534 -0.0884545
105961 95466 2986 0.0250413 0.99491 -0.0976038
105782 95476 2993 0.027292 0.998335 -0.0508123
105596 95481 3001 0.0235771 0.999705 -0.00588324
105325 95491 3013 -0.0354258 -0.999 0.0272864
105134 95490 3021 0.0408636 0.998475 -0.0371307
104969 95504 3028 -0.0407253 -0.996714 0.0700224
104794 95511 3035 -0.0512109 -0.995064 0.0850055
104628 95522 3042 -0.0496636 -0.997663 0.0469363
104462 95532 3049 -0.0574283 -0.998308 0.00917196
104303 95545 3055 -0.148887 -0.98854 0.0249438
104188 95529 3060 -0.167216 -0.985893 0.00734676
104024 95538 3067 -0.0811855 -0.994873 0.0603011
104039 95660 3063 -0.0811855 -0.994873 0.0603011
104023 95763 3061 -0.0957286 -0.991887 0.0836476
103556 95574 3086 -0.200253 -0.95759 0.207171
103405 95587 3092 -0.329022 -0.908398 0.257986
103299 95629 3095 -0.598733 -0.730232 0.329059
103275 95669 3095 0.656211 0.621479 -0.427961
103312 95805 3090 0.797424 0.465843 -0.383542
103195 95951 3091 0.911578 0.186896 -0.366191
103337 96159 3079 0.910302 0.113241 -0.398155
103089 96105 3091 0.958937 0.0190653 -0.282979
103066 96600 3078 0.942046 -0.0811642 -0.325517
103163 96784 3068 0.946506 -0.16076 -0.279789
103249 97137 3055 0.88113 -0.215406 -0.420963
103303 97294 3048 0.839827 -0.264413 -0.474107
107102 102978 2722 0.819773 0.571027 -0.0435999
106904 103116 2726 0.83574 0.549096 -0.00563433
106880 103248 2722 0.818485 0.574438 -0.0102103
96542 96107 3349 0.13184 -0.978599 0.157994
96428 96106 3353 0.0986393 -0.978551 0.180855
96327 96117 3356 0.0369868 -0.988371 0.147495
96205 96107 3361 -0.109685 -0.952271 0.284868
96122 96133 3363 0.428905 0.876134 -0.220066
96025 96146 3366 -0.43231 -0.869749 0.238002
96020 96246 3363 0.542193 0.752719 -0.373419
96014 96293 3362 0.798778 0.594956 0.0893375
95956 96344 3362 -0.495492 -0.821703 0.281589
95969 96463 3357 0.833675 0.0590771 0.549087
96020 96729 3346 0.0509815 -0.290061 -0.955649
95341 96160 3390 0.069044 -0.920865 0.383719
95238 96162 3394 -0.097241 0.934964 -0.341154
95414 96392 3379 0.66681 0.333265 -0.666558
95398 96484 3377 0.236889 -0.0898908 -0.967369
95356 96548 3376 0.47765 -0.100361 -0.872799
95216 96512 3382 0.882283 -0.0826624 -0.463404
95360 96989 3360 -0.59833 -0.00516415 -0.801233
95298 96979 3362 -0.59833 -0.00516415 -0.801233
94429 96172 3422 -0.0627473 -0.95152 0.30112
94356 96200 3423 -0.162386 -0.93275 0.321883
94278 96223 3425 0.327956 0.828752 -0.453448
95290 97532 3342 -0.107953 -0.0529763 -0.992743
94354 97520 3374 0.511562 -0.13216 -0.849022
98093 110661 2731 0.935889 0.352283 0.00300721
85644 94358 3751 0.966507 -0.252291 -0.0470445
85572 94328 3754 0.966507 -0.252291 -0.0470445
85697 94718 3733 0.959375 -0.271289 -0.0774763
82535 113095 2879 0.91552 0.401527 -0.0244645
66673 115217 2688 0.054355 -0.997775 0.0386108
63739 109912 2879 0.938983 -0.318675 0.129449
63624 109905 2877 0.871571 -0.44781 0.199577
61739 111427 2766 0.892941 -0.447768 -0.0464695
56511 111319 2635 0.16531 -0.97331 0.159187
56434 111217 2637 -0.174028 0.966897 -0.186612
55666 111032 2622 -0.276134 0.958804 -0.066666
54637 104901 2827 0.51723 -0.00356814 0.855839
54636 104822 2829 0.51723 -0.00356814 0.855839
54579 104722 2831 0.51723 -0.00356814 0.855839
54512 104634 2832 -0.423133 0.077793 -0.902722
54419 104573 2831 -0.423133 0.077793 -0.902722
54303 104536 2828 -0.352148 0.473186 -0.807519
54166 104519 2824 -0.352148 0.473186 -0.807519
54045 104486 2821 -0.352148 0.473186 -0.807519
53921 104534 2815 -0.472543 0.248638 -0.845507
56932 101332 3036 0.836167 0.133259 0.53204
56991 101135 3045 0.872435 0.0872833 0.480874
56978 101012 3049 0.922206 -0.0904657 0.375967
56970 100885 3053 0.964548 -0.0569618 0.257689
56962 100758 3057 0.772852 -0.216846 0.596388
56944 100643 3061 -0.624006 0.272047 -0.732535
56872 100580 3060 0.160455 -0.541427 0.825294
56846 100539 3061 0.160455 -0.541427 0.825294
56754 100496 3059 0.045962 -0.679375 0.73235
56627 100485 3055 -0.00732002 0.901553 -0.432606
56505 100470 3051 -0.056272 0.984446 -0.166431
56375 100461 3046 0.099446 0.98219 0.159416
56236 100460 3041 0.0947212 0.709544 0.698265
56103 100452 3037 -0.188626 -0.403108 -0.895502
55984 100498 3031 -0.227928 -0.15646 -0.961025
55869 100471 3027 0.0358586 0.744348 0.666828
55724 100473 3022 0.0804367 0.974631 -0.208865
55562 100489 3015 0.150769 0.900337 -0.408242
55413 100492 3010 0.173529 0.835758 -0.520957
55273 100486 3005 0.198016 0.802493 -0.562845
55142 100471 3000 0.0719024 0.820729 -0.566775
55030 100505 2995 -0.0519287 0.833153 -0.550598
42776 95519 2611 -0.34909 -0.335937 -0.874804
43715 94966 2666 0.691607 0.172883 0.701279
43849 94776 2676 0.75618 0.0413504 0.653055
43920 94680 2681 0.757222 0.117216 0.642554
43924 94548 2684 0.691655 0.0507245 0.720445
43933 94415 2687 0.625501 -0.130864 0.769171
43938 94284 2690 0.66169 -0.15627 0.733312
43976 94139 2694 0.579932 -0.322878 0.74795
43680 94136 2681 0.209613 -0.564567 0.798327
43548 94127 2675 0.209613 -0.564567 0.798327
43465 94032 2673 0.17302 -0.59294 0.786439
37604 95717 2368 0.0642918 0.161233 -0.98482
37691 95608 2374 0.0642918 0.161233 -0.98482
35249 95636 2260 -0.0622658 0.992371 0.106409
32818 95650 2145 -0.208354 0.977823 -0.0212416
31404 95239 2084 -0.0811933 0.980557 0.17865
31382 95082 2086 -0.0811933 0.980557 0.17865
27829 95817 1905 -0.183926 -0.982932 -0.00398996
51610 85597 3193 0.227305 0.97379 -0.00802684
44617 87078 2834 0.556909 -0.0163388 0.830413
44605 86969 2835 0.556909 -0.0163388 0.830413
46697 86297 2945 0.0766374 0.995835 -0.0493839
46658 86200 2944 0.0766374 0.995835 -0.0493839
44585 86583 2838 0.516475 -0.076472 0.852881
44580 86472 2839 -0.532176 0.089095 -0.841933
44609 86355 2842 0.716387 0.0432742 0.69636
44595 86247 2842 0.990674 -0.0540458 -0.125078
44590 86137 2843 0.990674 -0.0540458 -0.125078
44587 86027 2844 0.982086 -0.0902267 -0.165429
44588 85916 2845 0.999387 -0.0331292 -0.0113097
44578 85863 2845 0.999387 -0.0331292 -0.0113097
44557 85756 2845 0.71355 -0.0162676 0.700416
44581 85642 2847 0.742133 0.0582424 0.667717
42760 85625 2757 -0.152092 0.341109 -0.927638
42908 85484 2766 -0.152092 0.341109 -0.927638
40296 85617 2635 -0.0311595 0.996957 -0.07145
37779 85629 2510 0.00950077 0.999241 0.0377846
35272 85661 2385 0.00714648 0.999894 0.01271
32754 85582 2261 0.0075707 0.99844 -0.0553151
30253 85608 2136 0.0117428 0.999572 -0.0267879
29035 85605 2076 -0.00974665 -0.999658 0.0242714
27919 85582 2020 -0.0707598 0.995291 -0.0662487
25901 85072 1922 0.00514904 0.970335 -0.24171
23813 84947 1819 0.00514904 0.970335 -0.24171
57036 67970 3357 0.981966 -0.186986 0.0279012
56795 66490 3310 0.980662 -0.186418 -0.059582
56839 66424 3310 0.980662 -0.186418 -0.059582
70294 69861 3946 0.733326 -0.677153 0.0608113
70378 69899 3950 -0.700328 0.712506 -0.0433064
63487 58996 3306 0.695015 0.714108 0.0836873
68011 64419 3659 0.804715 -0.593347 0.0193305
65340 57123 3279 -0.256611 0.965782 0.0376264
67049 59664 3432 0.709451 0.704543 -0.0172882
66537 57448 3323 -0.26416 0.964156 -0.0249442
76902 54094 3305 -0.350142 -0.935597 0.0453671
79041 61410 3675 0.994566 0.0973153 0.0369807
79096 61464 3678 0.998804 0.048597 -0.00539601
83473 68243 3966 0.902423 0.429279 0.0367884
83596 68062 3956 0.898717 0.438442 0.00870849
95260 71001 3640 0.981981 -0.187785 0.0211992
90182 74744 3950 0.73947 0.362183 -0.567457
90163 74836 3953 0.73947 0.362183 -0.567457
90164 74878 3954 0.777028 0.386722 -0.496662
90083 74951 3959 0.793061 0.326494 -0.514253
90097 74987 3959 0.836456 0.2898 -0.465143
90872 74846 3920 -0.37621 -0.0243072 -0.926215
90902 74879 3919 -0.37621 -0.0243072 -0.926215
90854 74940 3922 -0.37621 -0.0243072 -0.926215
90883 74973 3922 -0.37621 -0.0243072 -0.926215
90011 75348 3969 -0.565408 -0.26953 0.77953
90230 75312 3958 0.536668 -0.045525 -0.842564
90748 75173 3931 -0.368824 -0.0306468 -0.928994
90183 75410 3962 0.310314 0.167801 -0.935707
90009 75510 3972 -0.650515 0.0294773 0.758921
90002 75552 3973 0.646443 -0.0576642 -0.76078
89987 75657 3975 0.723891 -0.237951 -0.647581
90726 75856 3943 -0.200606 0.676612 0.708486
90728 76000 3945 0.232356 -0.815014 -0.530814
105455 95521 2807 0.0280391 0.9996 -0.00376727
105297 95541 2814 0.0343405 0.99941 0.000390311
104956 95506 2832 0.0328759 0.998944 -0.0320924
104469 95547 2854 0.0670095 0.997581 -0.0184768
104308 95560 2862 0.119981 0.991248 -0.0550683
104197 95602 2866 0.0991156 0.994762 -0.0250022
103994 95531 2877 0.0414729 0.998192 -0.0435033
103862 95559 2883 0.0133072 0.997674 -0.0668585
103727 95585 2888 -0.0404241 0.988868 -0.143201
103521 95563 2899 -0.21081 -0.96624 0.148119
103379 95583 2905 0.338591 0.925412 -0.1702
103177 95673 2912 0.804946 0.343361 -0.483906
103168 95722 2911 0.804946 0.343361 -0.483906
103142 95816 2909 0.827294 0.285396 -0.483874
103122 95914 2907 0.901355 0.157699 -0.403348
103110 96018 2904 0.87969 0.0208327 -0.475091
103096 96121 2902 0.885979 -0.0596167 -0.459877
103121 96251 2896 0.865209 -0.0456962 -0.499325
103142 96379 2891 0.89057 0.0638013 -0.45035
103158 96447 2888 0.946208 0.0356109 -0.321593
103152 96558 2885 0.918355 -0.0112786 -0.395598
103155 96675 2881 0.942927 -0.0671815 -0.326152
103148 96785 2878 0.923167 -0.155043 -0.351744
103149 96902 2874 0.919583 -0.180963 -0.348741
103164 97029 2869 0.899958 -0.167676 -0.402443
103193 97167 2863 0.909796 -0.178078 -0.374913
107087 102966 2489 0.819773 0.571027 -0.0435999
107003 103047 2489 0.841425 0.540124 -0.0164151
106943 103148 2488 0.83574 0.549096 -0.00563433
106935 103294 2483 0.818925 0.572971 -0.0326595
96590 96123 3190 0.10881 -0.984944 0.134337
96471 96118 3195 0.101152 -0.98576 0.134336
96388 96093 3200 0.0810867 -0.990596 0.110199
96266 96084 3205 0.027425 -0.996712 0.07624
96167 96095 3209 -0.106761 -0.954427 0.278697
96067 96105 3212 -0.107183 -0.934906 0.338323
95957 96105 3217 -0.119929 -0.84839 0.515608
95842 96100 3222 -0.0970043 0.891171 -0.443175
95738 96104 3226 -0.0234128 0.995853 -0.0879149
95662 96083 3230 0.00382767 0.999049 -0.0434232
95565 96093 3233 0.0283508 0.994564 -0.100197
95470 96105 3237 0.0483434 0.993528 -0.102782
95362 96103 3241 -0.0439766 -0.992395 0.114974
95273 96119 3244 -0.0496719 -0.989095 0.138647
95168 96119 3248 -0.0344671 -0.98847 0.147443
95075 96130 3252 0.0502115 0.990959 -0.124417
95015 96122 3254 0.0467798 0.989743 -0.134979
94923 96134 3257 0.0382376 0.994204 -0.100483
94816 96130 3262 0.0249403 0.99343 -0.111687
94736 96152 3264 0.0281387 0.993207 -0.112906
94632 96149 3268 0.0372654 0.989022 -0.142992
94532 96151 3272 -0.0757058 -0.982335 0.171133
94354 96174 3278 0.134705 0.963093 -0.233038
94299 96169 3280 -0.149307 -0.962704 0.225631
94223 96193 3282 -0.306408 -0.876237 0.371918
94137 96206 3285 0.262848 0.854971 -0.447141
94126 96300 3282 0.345024 0.41363 -0.842537
94100 96378 3279 -0.412472 -0.194931 0.88987
94083 96575 3272 -0.282401 -0.0783168 0.956094
94104 96652 3268 0.316496 0.0717978 -0.945873
94104 96761 3263 -0.262352 0.00854223 0.964934
94100 96866 3259 -0.254972 0.0163138 0.966811
94120 97223 3243 -0.33721 0.0836543 0.937705
94167 97334 3237 -0.437286 0.0631744 0.897101
94228 97517 3227 0.493185 -0.118402 -0.861829
94196 97595 3224 0.48632 -0.186668 -0.853609
98139 110736 2492 0.928947 0.370165 0.00595814
85642 94301 3648 0.960276 -0.278758 0.01278
85669 94478 3639 0.966507 -0.252291 -0.0470445
85796 94871 3616 0.966825 -0.253552 -0.0310053
85818 95045 3606 0.972847 -0.231088 0.0128957
82530 113088 2664 0.918057 0.395786 -0.0229297
66778 115281 2447 0.054355 -0.997775 0.0386108
66661 115255 2446 0.054355 -0.997775 0.0386108
63739 110148 2652 0.960128 -0.279512 0.00522313
63727 109927 2663 0.938983 -0.318675 0.129449
63671 109800 2668 0.871571 -0.44781 0.199577
63604 109694 2672 0.709943 -0.654005 0.261265
61778 111473 2535 0.892941 -0.447768 -0.0464695
56588 111212 2396 -0.174028 0.966897 -0.186612
56557 111044 2403 -0.174028 0.966897 -0.186612
55608 111014 2373 -0.190761 0.976797 -0.0973541
54910 104448 2634 0.704468 -0.19422 0.682644
54797 104409 2631 0.664256 -0.249595 0.704603
57049 100394 2882 0.518219 -0.625449 0.583321
56951 100358 2880 0.223828 -0.771711 0.595285
56327 100896 2833 -0.204541 -0.254284 -0.945253
56301 100786 2837 0.166857 0.835785 0.523089
56306 100647 2842 0.166857 0.835785 0.523089
56340 100482 2850 0.05299 0.820439 -0.569272
55325 101307 2776 0.316244 0.035763 -0.948004
54541 101694 2729 -0.176945 0.00814976 0.984187
55387 100773 2799 -0.414788 -0.154023 0.896787
55311 100575 2804 0.198016 0.802493 -0.562845
54585 100491 2776 0.0467273 0.881791 -0.469319
54490 100440 2774 0.0947816 0.878264 -0.468688
44200 95403 2438 0.769555 0.0259112 0.638055
44182 95280 2440 0.769555 0.0259112 0.638055
44176 95152 2443 0.769555 0.0259112 0.638055
44153 95032 2445 0.769555 0.0259112 0.638055
44146 94905 2447 0.915742 0.0302297 0.400627
44163 94768 2451 0.884233 -0.015386 0.466793
44150 94644 2454 0.871958 -0.0727882 0.484139
44159 94576 2456 0.922514 -0.0496845 0.382751
44164 94444 2459 0.907178 -0.00403194 0.420727
44145 94324 2461 0.925827 -0.0108482 0.377791
44138 94199 2463 0.948251 -0.0549264 0.312736
44149 94066 2466 0.925649 -0.234127 0.297252
44111 93955 2467 0.867807 -0.395257 0.301138
44025 93864 2464 0.482145 -0.678814 0.553848
43721 93863 2449 0.21221 -0.757427 0.617472
43468 93903 2435 0.254968 -0.762784 0.594266
37834 95636 2103 0.0642918 0.161233 -0.98482
35309 95628 1970 -0.0622658 0.992371 0.106409
32816 95668 1836 -0.16076 0.986209 0.0393372
51600 85586 3017 0.227305 0.97379 -0.00802684
44507 87100 2607 0.556909 -0.0163388 0.830413
46706 86288 2738 0.0766374 0.995835 -0.0493839
46647 86196 2736 0.0766374 0.995835 -0.0493839
44547 86532 2616 0.745071 -0.000886346 0.666984
44546 86421 2617 -0.682855 0.0763585 -0.726553
44733 86327 2629 0.990674 -0.0540458 -0.125078
44555 86252 2620 0.990674 -0.0540458 -0.125078
44555 86141 2621 0.980395 -0.0861246 -0.177225
44524 86036 2620 0.99441 -0.045407 -0.0953216
44520 85926 2621 0.999387 -0.0331292 -0.0113097
44499 85708 2623 0.997467 0.041797 0.057557
44670 85622 2633 0.997467 0.041797 0.057557
44625 85520 2631 0.997467 0.041797 0.057557
44703 85177 2639 0.997467 0.041797 0.057557
40290 85559 2389 -0.0311595 0.996957 -0.07145
37783 85634 2249 0.00950077 0.999241 0.0377846
57030 67947 3201 0.986753 -0.161688 0.0132285
56795 66471 3148 0.980662 -0.186418 -0.059582
56586 66253 3132 0.980662 -0.186418 -0.059582
50017 60112 2632 0.601426 -0.609789 -0.516182
50073 60019 2631 0.601426 -0.609789 -0.516182
70287 69861 3865 0.720357 -0.693002 0.0288801
70351 69875 3868 0.718771 -0.693263 0.0524813
70366 69132 3836 0.885874 -0.460304 0.0578604
70469 69196 3843 0.868158 -0.484205 0.108848
63485 59032 3146 0.695015 0.714108 0.0836873
63589 59040 3150 0.695015 0.714108 0.0836873
68052 64483 3547 0.884776 -0.464248 0.0405713
65925 60658 3301 0.688977 0.720478 -0.0788771
65354 57117 3114 -0.285338 0.958237 0.0190692
66988 59663 3285 0.709451 0.704543 -0.0172882
67100 59712 3291 0.709451 0.704543 -0.0172882
76916 54067 3143 -0.350142 -0.935597 0.0453671
79066 61477 3564 0.981425 0.185659 0.0483227
79911 64112 3710 0.935275 0.340415 0.0968404
83489 68245 3888 0.910459 0.413569 -0.00508567
83443 68398 3897 0.91563 0.40201 0.00318055
83532 68291 3890 0.910459 0.413569 -0.00508567
95291 70981 3519 0.981981 -0.187785 0.0211992
90167 74829 3873 0.728282 0.347758 -0.590483
90823 74856 3839 -0.351255 0.0265889 -0.935902
90743 74929 3845 -0.37621 -0.0243072 -0.926215
90062 75223 3887 0.71826 0.225758 -0.658131
89963 75301 3893 0.582766 0.491458 -0.647188
89968 75380 3895 0.839455 -0.0733985 -0.538449
89856 75440 3902 0.834634 -0.190831 -0.516691
90944 75097 3837 -0.37621 -0.0243072 -0.926215
90955 75136 3837 -0.382456 -0.0047094 -0.923962
90954 75181 3838 -0.382456 -0.0047094 -0.923962
90994 75211 3837 -0.430231 0.0234545 -0.902414
90931 75275 3841 -0.430231 0.0234545 -0.902414
90005 75648 3898 0.809859 0.314537 -0.495171
90957 75781 3848 -0.341545 0.937396 0.0680909
90776 76022 3862 0.465474 -0.846831 -0.257315
91645 76261 3818 0.162768 -0.86663 -0.471655
103141 95636 2758 0.750039 0.4922 -0.441793
103090 95713 2758 0.851685 0.244393 -0.463578
103060 95805 2756 0.842914 0.240012 -0.48155
103030 95896 2755 0.968421 0.0744324 -0.23795
103053 95967 2751 0.984394 0.0555807 -0.16697
103095 96108 2744 0.94599 0.00927402 -0.324062
103119 96238 2738 0.918851 0.0031035 -0.394592
103090 96331 2736 0.904703 -0.00765579 -0.425974
102976 96366 2741 0.903072 0.0665664 -0.424299
102973 96478 2737 0.916421 0.0113267 -0.400055
102968 96589 2734 0.897634 -0.0221488 -0.440184
103012 96677 2728 0.915408 -0.0787684 -0.394745
103107 96860 2717 0.902142 -0.156454 -0.402071
103049 96935 2717 0.909274 -0.191022 -0.369773
103084 97077 2710 0.905115 -0.150058 -0.397806
103118 97219 2703 0.899958 -0.167676 -0.402443
107029 102993 2293 0.841425 0.540124 -0.0164151
96519 96139 3062 -0.156861 0.985878 0.0586468
96382 96116 3069 0.0711276 -0.996603 0.0415069
96263 96109 3075 0.0609976 -0.994519 0.0849195
96182 96085 3079 -0.0164329 -0.99736 0.0707295
96077 96090 3084 -0.00689912 -0.993549 0.113192
95967 96090 3089 -0.00215003 -0.997351 0.0727005
95865 96096 3093 -0.00239975 -0.998572 0.0533709
95759 96099 3098 -0.00610995 -0.99958 0.028319
95655 96103 3102 -0.0178551 -0.999635 0.0202917
95556 96110 3106 -0.0138993 -0.999884 0.00618218
95480 96088 3110 -0.0216089 -0.999058 0.0376295
95396 96110 3113 -0.0227603 -0.998043 0.0582475
95272 96091 3119 -0.0383104 -0.997633 0.0571
95186 96110 3122 -0.0394811 -0.995146 0.0901476
95091 96119 3126 -0.0598539 -0.996192 0.0633938
94991 96123 3130 -0.0298978 -0.998361 0.0487931
94894 96129 3134 -0.00643558 -0.998016 0.0626249
94799 96137 3138 -0.020079 -0.993189 0.114772
94720 96108 3143 -0.0171966 -0.9919 0.125855
94620 96108 3147 0.026905 0.989591 -0.141372
94553 96144 3148 -0.0455768 -0.992583 0.112706
94446 96137 3153 -0.0862679 -0.984915 0.150002
94349 96140 3157 -0.0539706 -0.976475 0.208769
94275 96166 3159 -0.0912321 -0.948672 0.302817
94171 96160 3164 -0.15503 -0.879072 0.450774
94105 96142 3167 -0.123717 -0.853303 0.506526
94031 96168 3169 -0.0623181 -0.854013 0.516506
93932 96166 3174 0.099583 0.929105 -0.356157
93861 96194 3175 0.279828 0.881519 -0.38029
93784 96215 3178 -0.378757 -0.771945 0.510532
93719 96250 3179 -0.536585 -0.716732 0.445391
93681 96314 3177 0.656391 0.399426 -0.640007
93683 96370 3175 0.80136 0.283948 -0.526493
93650 96440 3173 0.772431 0.198537 -0.603269
93641 96538 3168 0.751071 0.187311 -0.633093
93639 96644 3164 0.675209 0.116502 -0.728368
93611 96722 3161 0.667029 0.0374602 -0.744089
93626 96849 3155 0.729949 -0.0534277 -0.681411
93644 96926 3150 -0.698709 0.086473 0.710161
93645 97038 3145 0.732427 -0.108836 -0.672091
93650 97157 3139 0.747077 -0.149497 -0.647708
93674 97299 3132 -0.494402 0.282297 0.822116
93714 97461 3122 0.442046 -0.330289 -0.833969
85609 94347 3559 0.966556 -0.255159 0.0257669
85590 94367 3558 0.966556 -0.255159 0.0257669
85714 94754 3533 0.972847 -0.231088 0.0128957
85699 94849 3528 0.972847 -0.231088 0.0128957
66670 115228 2247 0.054355 -0.997775 0.0386108
66538 115247 2243 -0.047658 0.998227 -0.0356556
63733 110170 2469 0.986788 -0.15756 0.0377394
63698 109996 2478 0.931689 -0.351296 0.0924469
63680 109791 2489 0.835935 -0.503088 0.219352
63599 109714 2491 0.676094 -0.709637 0.198273
63507 109662 2491 0.693051 -0.718893 0.0536059
63401 109637 2490 0.693051 -0.718893 0.0536059
61610 111549 2334 0.894105 -0.445877 -0.0420706
54750 105509 2396 0.806367 0.0992115 0.583035
54914 105086 2422 0.818485 0.0404147 0.573104
54775 105074 2417 0.815254 0.0292479 0.578365
54778 104910 2424 0.818926 0.095639 0.565873
54952 104408 2454 0.913469 -0.0858896 0.39774
54876 104331 2455 0.810553 -0.161241 0.563032
54792 104342 2451 0.810553 -0.161241 0.563032
57091 101654 2669 0.818048 0.0384607 0.573863
57075 101530 2674 0.818048 0.0384607 0.573863
57051 101417 2678 0.834631 0.044408 0.549016
57027 101304 2682 0.827148 0.00265337 0.561978
57052 101141 2690 0.835122 0.13163 0.534083
56979 101079 2690 0.844526 0.201777 0.496046
56761 101229 2674 -0.594427 -0.0834236 -0.79981
57024 100301 2725 0.572701 -0.787817 0.226624
56945 100246 2724 0.110753 -0.92379 0.366532
56637 100475 2701 -0.259954 -0.822273 0.506251
56517 100459 2696 -0.342371 -0.806581 0.481881
56462 100379 2697 -0.0530268 -0.85516 0.515645
56315 100386 2690 0.292644 -0.76938 0.567816
55244 100646 2631 0.126342 -0.822674 0.554297
55258 100500 2637 0.126342 -0.822674 0.554297
55138 100475 2633 0.325128 -0.790205 0.519488
55071 100270 2638 0.129307 -0.814408 0.565703
54245 100396 2594 0.0162535 0.900415 -0.434729
54212 100291 2597 0.0152539 0.900539 -0.434507
44065 95267 2233 0.776562 -0.0195777 0.629736
44104 95184 2237 0.776562 -0.0195777 0.629736
44089 95060 2239 0.776562 -0.0195777 0.629736
44116 94788 2248 0.925143 0.0416362 0.377329
44119 94657 2251 0.952387 -0.0385432 0.302447
44122 94526 2255 0.949768 -0.0800739 0.302539
44092 94411 2256 0.991552 -0.0481408 0.120443
44091 94283 2259 0.991649 -0.080054 0.101113
44104 94213 2261 0.99338 -0.105977 0.044338
44096 94088 2264 0.930493 -0.366247 0.00679197
44087 93965 2266 0.867807 -0.395257 0.301138
44044 93856 2267 -0.623949 0.76685 0.150431
43807 93826 2254 -0.344428 0.731065 -0.588993
43522 93816 2238 -0.331952 0.740617 -0.584204
51546 85567 2867 0.227305 0.97379 -0.00802684
46652 86306 2562 0.0766374 0.995835 -0.0493839
46619 86209 2561 0.0766374 0.995835 -0.0493839
47040 75460 2615 0.443387 0.896243 -0.0125296
56966 67933 3067 0.988142 -0.153359 0.00746304
56722 66447 3009 0.980662 -0.186418 -0.059582
56575 66265 2995 0.980662 -0.186418 -0.059582
61552 68999 3346 -0.220403 0.971748 -0.0844347
49955 60075 2444 0.59733 -0.61304 -0.517087
50037 60000 2445 0.59733 -0.61304 -0.517087
70236 69824 3794 0.725312 -0.686035 0.0572564
70347 69892 3801 0.725312 -0.686035 0.0572564
70312 69085 3762 0.885874 -0.460304 0.0578604
70370 69092 3764 0.885874 -0.460304 0.0578604
70279 68943 3753 0.885874 -0.460304 0.0578604
70413 69046 3763 0.868158 -0.484205 0.108848
63448 59011 3009 0.695015 0.714108 0.0836873
63503 58950 3008 0.695015 0.714108 0.0836873
68030 64497 3450 0.871154 -0.489167 0.04251
65941 60718 3184 0.688977 0.720478 -0.0788771
65323 57095 2974 -0.285338 0.958237 0.0190692
66988 59631 3161 0.709451 0.704543 -0.0172882
66950 59421 3149 0.709451 0.704543 -0.0172882
67076 59567 3161 0.709451 0.704543 -0.0172882
66483 57431 3027 -0.258779 0.964164 -0.0584974
66518 57412 3027 -0.258779 0.964164 -0.0584974
76898 54036 3005 -0.350142 -0.935597 0.0453671
79069 61414 3464 0.981384 0.188182 0.03837
79759 64413 3647 0.892904 0.450097 0.0116447
79806 64423 3648 0.892904 0.450097 0.0116447
79859 64359 3644 0.935275 0.340415 0.0968404
79900 64429 3648 0.935275 0.340415 0.0968404
83457 68232 3823 0.920817 0.38978 -0.0129382
83416 68419 3835 0.937657 0.346897 0.0214896
95241 70977 3422 0.981981 -0.187785 0.0211992
90040 74780 3812 0.704652 0.263836 -0.658677
90051 74817 3813 0.713175 0.238197 -0.659275
90121 74831 3809 0.753835 0.263575 -0.601881
90172 74917 3808 0.746996 0.313692 -0.58617
90013 75020 3820 0.749186 0.429989 -0.503815
89942 75087 3825 0.91488 0.236767 -0.32701
89928 75134 3827 0.901489 0.299185 -0.31274
89925 75176 3828 0.791816 0.275381 -0.545154
89917 75219 3829 0.819322 0.255703 -0.513155
89881 75253 3832 0.884935 0.208799 -0.416284
89881 75293 3833 0.90538 0.272716 -0.325443
89896 75328 3833 0.895586 0.322461 -0.306505
89884 75711 3841 0.842911 0.197578 -0.500463
90749 76077 3797 0.640738 -0.648775 -0.410542
96546 96082 2892 0.154375 -0.987215 -0.0396846
96406 96057 2900 0.154614 -0.987389 -0.0340118
96310 96073 2905 0.0270284 -0.99959 0.00943181
96198 96072 2910 0.0271829 -0.998882 -0.038687
96088 96073 2916 0.0315521 -0.998512 -0.0444836
96003 96098 2919 0.018959 -0.998433 -0.052644
95915 96066 2925 -0.0390998 -0.999203 -0.00809004
95820 96079 2929 -0.0214302 -0.999559 -0.020537
95720 96087 2933 -0.0349218 -0.999382 0.00411834
95600 96076 2940 -0.0378712 -0.999246 0.00854072
95510 96091 2943 -0.00480614 -0.999988 -0.00033443
95412 96100 2948 0.00120371 -0.999448 -0.0332086
95304 96098 2953 0.00564105 -0.999688 -0.0243484
95238 96085 2957 -0.0198076 -0.999786 -0.00592465
95144 96095 2961 -0.0450328 -0.998977 0.00417142
95041 96096 2966 -0.0672378 -0.997736 -0.00124203
94942 96101 2971 -0.0314799 -0.997247 0.067134
94850 96112 2974 -0.00385936 -0.999974 -0.0061416
94739 96103 2980 -0.000133388 -0.999369 -0.0355239
94645 96111 2984 -0.00598528 -0.998861 -0.0473429
94589 96105 2987 -0.0259247 -0.999421 -0.0220279
94486 96103 2992 -0.037514 -0.999292 -0.00302445
94404 96121 2995 -0.0420377 -0.998132 0.0443239
94305 96122 3000 -0.0462218 -0.998317 0.0350256
94197 96113 3005 -0.0113846 -0.999115 0.0405008
94119 96134 3008 -0.0141354 -0.998359 0.0554886
94062 96125 3011 -0.022828 -0.998295 0.0537201
93960 96121 3016 -0.0756579 -0.995663 0.0541382
93873 96131 3020 -0.113835 -0.986428 0.11833
93794 96152 3022 -0.267709 -0.938141 0.219598
93712 96167 3025 -0.362049 -0.906409 0.217585
93629 96180 3028 -0.57632 -0.717484 0.391245
93575 96226 3029 0.769902 0.623118 -0.137747
93599 96360 3021 0.861153 0.273673 -0.42839
93684 96509 3009 0.731908 0.32338 -0.59978
93514 96424 3021 0.767456 0.455737 -0.450905
93442 96450 3023 0.734156 0.427831 -0.527234
93428 96542 3019 0.679505 0.445586 -0.582861
93430 96654 3013 0.869909 0.110972 -0.480566
93407 96737 3010 0.891591 -0.0652589 -0.448114
93402 96841 3005 0.852629 -0.0952186 -0.513767
93438 96939 2998 0.824816 -0.0398906 -0.563993
93423 97033 2994 0.831113 -0.191267 -0.522176
93444 97169 2986 0.855209 -0.186721 -0.48348
93457 97299 2978 0.831641 -0.23837 -0.50155
93504 97470 2967 0.870933 -0.342242 -0.352628
94113 109984 2220 -0.166107 0.977375 -0.130945
94006 110012 2222 -0.163624 0.974941 -0.150721
85604 94282 3448 0.941518 -0.326968 0.081458
85579 94351 3444 0.973224 -0.216715 0.0766174
85709 94748 3416 0.965872 -0.25526 0.0439858
85694 94841 3411 0.965872 -0.25526 0.0439858
82525 113052 2250 0.929729 0.367956 0.01459
66720 115265 1983 0.054355 -0.997775 0.0386108
66613 115212 1984 -0.047658 0.998227 -0.0356556
63723 110180 2231 0.992188 -0.064334 -0.106888
